ncols        562
nrows        31
xllcorner    -20037488.186061784625
yllcorner    -6348491.377794721164
dx           52136.492712402141
dy           52204.467279171899
-4169 -4200 -4110 -4212 -4162 -4162 -4289 -4169 -4250 -4127 -4201 -4224 -4132 -4072 -4092 -4038 -3805 -3907 -3791 -3899 -3899 -3910 -3936 -3808 -3767 -3849 -3759 -3738 -3724 -3725 -3573 -3489 -3412 -3348 -3307 -3202 -3202 -3120 -3167 -3432 -3331 -3276 -3336 -3323 -3249 -3287 -3246 -3275 -3267 -3411 -3305 -3326 -3326 -3382 -3370 -3305 -3446 -3168 -3473 117 -134 -14 -521 -241 -1344 -1586 -1698 -1910 -1910 -2084 -2265 -2330 -2311 -2091 -2193 -2073 -1460 -1449 -1361 -1507 -3161 -81 13 139 139 298 3448 3682 1163 334 282 306 206 193 183 182 199 203 188 188 178 170 162 159 97 127 156 118 116 93 73 88 82 75 71 71 57 59 41 52 36 46 54 48 60 97 148 125 296 179 94 94 127 105 107 284 429 411 299 155 458 213 83 5 17 20 18 18 21 5 4 -2 21 26 -2 -19 -21 -28 -44 -35 -57 -2633 -3046 -3046 -2855 -3465 -3650 -3713 -3824 -4040 -3900 -4380 -4326 -4463 -4597 -4474 -4506 -4458 -4458 -4343 -4376 -4510 -4476 -4765 -4638 -4314 -4654 -4342 -4233 -4098 -4248 -3859 -3761 -3806 -3806 -3765 -3702 -3373 -3513 -3427 -2674 -2704 -3751 -3401 -3434 -3457 -3730 -4767 -6135 -4867 -4867 -2763 -4549 -4585 -4070 -4122 -3919 -4175 -3509 -3028 -2574 -3792 -3590 -3861 -3566 -4005 -4005 -3783 -3845 -3964 -3949 -3810 -4076 -4112 -4480 -4511 -4171 -4631 -4832 -4776 -5030 -4750 -4750 -5180 -5238 -5191 -5145 -5101 -5109 -5025 -4865 -4991 -4950 -4861 -4586 -4796 -4370 -4370 -4622 -4382 -4497 -4210 -4088 -3970 -3747 -3615 -3445 -3188 -3119 -2753 -2266 -1552 3 3 34 22 58 151 509 324 264 502 326 461 494 402 366 331 325 325 314 300 315 324 356 344 336 345 396 350 417 405 380 420 461 461 448 455 473 476 516 611 910 1028 1037 1912 987 1237 1591 1349 1341 1341 397 397 397 397 397 1466 1670 1881 2442 1942 2498 1138 968 744 744 494 300 169 134 112 62 27 -3 -1565 -2739 -3074 -3526 -3659 -3938 -4225 -4225 -4457 -4561 -4660 -4756 -4805 -4837 -4881 -5168 -5064 -5085 -5118 -5076 -4988 -4805 -4842 -4842 -4906 -4650 -4628 -4875 -4649 -4759 -4589 -4360 -4593 -4590 -4648 -4467 -4534 -4565 -4516 -4516 -4441 -4596 -4590 -4278 -4512 -4457 -4015 -4826 -3818 -3587 -3531 -3440 -2330 -3677 -3677 -2840 -3074 -3789 -3338 -4105 -3642 -3392 -3844 -4093 -2690 -1413 -2252 -2577 -4536 -4192 -4192 -4483 -4757 -4598 -4766 -4770 -4789 -4800 -4790 -4792 -4636 -4635 -4732 -4707 -4615 -4702 -4702 -4610 -4624 -4587 -4677 -4649 -4615 -4614 -4598 -4650 -4620 -4608 -4545 -2680 -2979 -3378 -3378 -4296 -4611 -4628 -4624 -4566 -4610 -4586 -4548 -4639 -4474 -4453 -4457 -4496 -5061 -3152 -3152 -606 -40 -1379 -657 5 390 243 70 52 27 7 -3 -18 -11 -11 -11 -27 -34 -42 -42 -39 -30 -23 4 23 56 130 487 169 190 190 274 615 173 93 96 100 53 35 130 23 -61 -2121 -2385 -1431 416 416 -4 -68 -828 -37 -14 -34 466 -1633 -2380 -3209 -2866 -1747 -2389 -3885 175 175 156 79 -949 -1427 -59 -56 -36 -369 372 652 1046 682 73 -1390 -1269 -1269 -258 100 -1104 -2103 -3589 -3649 -4573 -4421 -4040 -3634 -3394 -3334 -3164 -3608 -3608 -3182 -3487 -4192 -4373
-4337 -4209 -4320 -4162 -4186 -4186 -4298 -4150 -4163 -4210 -4430 -4324 -4193 -4102 -4089 -4014 -3973 -3832 -3853 -3909 -3909 -3931 -4100 -3901 -3869 -3740 -3725 -3838 -3774 -3701 -3649 -3565 -3467 -3354 -3153 -3237 -3237 -3234 -3341 -3347 -3163 -3371 -3366 -3374 -3311 -3289 -3335 -3404 -3356 -3281 -3362 -3310 -3310 -3349 -3506 -3456 -3190 -3273 -3531 -3583 -1243 -370 -629 -924 -758 -1096 -1622 -2038 -2038 -1894 -2281 -2384 -2353 -1951 -1725 -1536 -1610 -1471 -1598 -1782 -1581 43 143 45 45 281 3473 3199 620 348 322 240 204 195 209 171 157 174 175 175 144 161 144 143 123 80 145 99 110 92 85 82 58 76 67 67 70 59 59 54 45 16 51 42 84 51 96 160 59 147 102 102 46 30 21 87 148 448 439 128 134 64 4 12 22 15 17 17 25 5 -1 28 42 44 37 27 8 -14 -12 -20 -35 -1163 -2632 -2632 -3164 -3236 -3277 -3519 -3685 -3727 -3679 -2771 -2837 -2451 -4432 -4436 -4238 -4506 -4506 -4474 -4321 -4490 -4449 -4198 -4528 -4186 -4186 -4290 -3776 -4096 -4073 -2726 -2972 -3136 -3136 -3488 -3724 -3972 -4022 -4607 -4870 -4137 -4011 -4612 -4557 -4011 -5282 -5439 -5215 -4771 -4771 -4933 -4691 -4351 -4213 -3966 -4057 -3493 -3300 -2923 -2529 -3925 -5253 -4125 -2959 -2989 -2989 -2575 -3442 -3490 -3852 -4208 -4124 -3981 -4912 -4337 -4406 -4720 -4888 -4792 -4880 -4982 -4982 -4916 -5111 -5151 -5264 -5068 -5181 -4751 -4992 -4696 -4706 -4350 -4716 -4755 -4682 -4682 -4693 -4542 -3895 -3997 -4099 -3930 -3910 -3631 -2832 -3371 -3110 -2988 -2466 -1256 -45 -45 44 77 78 216 500 576 471 454 300 432 513 493 370 377 303 303 290 345 323 333 323 336 341 351 354 376 391 406 437 421 438 438 476 470 472 447 498 575 608 814 1234 1251 1504 1944 1514 1464 1174 1174 1271 397 397 397 397 1291 1532 1741 1867 1437 1813 1499 1195 642 642 410 260 122 84 78 43 16 -1380 -2497 -2963 -3290 -3496 -3744 -4129 -4356 -4356 -4588 -4669 -4753 -4826 -4862 -4840 -4761 -4894 -5077 -5077 -5115 -5069 -5194 -4971 -4862 -4862 -4771 -4813 -4597 -4648 -4614 -4585 -4550 -4372 -4524 -4588 -4678 -4530 -4517 -4536 -4424 -4424 -4572 -4711 -4685 -4601 -4630 -4502 -4748 -4088 -4204 -4330 -4398 -3778 -2267 -2559 -2559 -3282 -3246 -3362 -3457 -3521 -3935 -4250 -3623 -3599 -2592 -2401 -2836 -2431 -4904 -4447 -4447 -4225 -4827 -4833 -4784 -4811 -4834 -4833 -4970 -4985 -4636 -4731 -4738 -4684 -4712 -4402 -4402 -4586 -4627 -4658 -4668 -4685 -4642 -4651 -4691 -4714 -4854 -4688 -4224 -2689 -3381 -3881 -3881 -4583 -4624 -4674 -4666 -4604 -4631 -4649 -4475 -4921 -4635 -4644 -3944 -3652 -5032 -5742 -5742 -2068 72 -1351 -1704 -295 1466 420 109 54 275 47 13 27 -6 -6 -2 -25 -30 -36 -38 -40 -31 -24 -9 -9 79 63 265 163 135 135 90 79 110 61 60 71 166 173 10 -47 -742 -2202 -2133 -170 1286 1286 1355 -32 425 540 1091 -684 -30 -1439 -1549 -2691 -2584 -2457 -2098 -3224 -1949 -1949 -13 -1001 -832 -741 -31 -391 -1 47 218 264 985 690 1797 -150 -335 -335 -718 -1330 -4 -45 -339 -284 -1305 -3215 -4271 -3185 -3190 -3662 -3945 -3414 -3414 -4162 -3980 -2338 -899
-4337 -4209 -4320 -4162 -4186 -4186 -4298 -4150 -4163 -4210 -4430 -4324 -4193 -4102 -4089 -4014 -3973 -3832 -3853 -3909 -3909 -3931 -4100 -3901 -3869 -3740 -3725 -3838 -3774 -3701 -3649 -3565 -3467 -3354 -3153 -3237 -3237 -3234 -3341 -3347 -3163 -3371 -3366 -3374 -3311 -3289 -3335 -3404 -3356 -3281 -3362 -3310 -3310 -3349 -3506 -3456 -3190 -3273 -3531 -3583 -1243 -370 -629 -924 -758 -1096 -1622 -2038 -2038 -1894 -2281 -2384 -2353 -1951 -1725 -1536 -1610 -1471 -1598 -1782 -1581 43 143 45 45 281 3473 3199 620 348 322 240 204 195 209 171 157 174 175 175 144 161 144 143 123 80 145 99 110 92 85 82 58 76 67 67 70 59 59 54 45 16 51 42 84 51 96 160 59 147 102 102 46 30 21 87 148 448 439 128 134 64 4 12 22 15 17 17 25 5 -1 28 42 44 37 27 8 -14 -12 -20 -35 -1163 -2632 -2632 -3164 -3236 -3277 -3519 -3685 -3727 -3679 -2771 -2837 -2451 -4432 -4436 -4238 -4506 -4506 -4474 -4321 -4490 -4449 -4198 -4528 -4186 -4186 -4290 -3776 -4096 -4073 -2726 -2972 -3136 -3136 -3488 -3724 -3972 -4022 -4607 -4870 -4137 -4011 -4612 -4557 -4011 -5282 -5439 -5215 -4771 -4771 -4933 -4691 -4351 -4213 -3966 -4057 -3493 -3300 -2923 -2529 -3925 -5253 -4125 -2959 -2989 -2989 -2575 -3442 -3490 -3852 -4208 -4124 -3981 -4912 -4337 -4406 -4720 -4888 -4792 -4880 -4982 -4982 -4916 -5111 -5151 -5264 -5068 -5181 -4751 -4992 -4696 -4706 -4350 -4716 -4755 -4682 -4682 -4693 -4542 -3895 -3997 -4099 -3930 -3910 -3631 -2832 -3371 -3110 -2988 -2466 -1256 -45 -45 44 77 78 216 500 576 471 454 300 432 513 493 370 377 303 303 290 345 323 333 323 336 341 351 354 376 391 406 437 421 438 438 476 470 472 447 498 575 608 814 1234 1251 1504 1944 1514 1464 1174 1174 1271 397 397 397 397 1291 1532 1741 1867 1437 1813 1499 1195 642 642 410 260 122 84 78 43 16 -1380 -2497 -2963 -3290 -3496 -3744 -4129 -4356 -4356 -4588 -4669 -4753 -4826 -4862 -4840 -4761 -4894 -5077 -5077 -5115 -5069 -5194 -4971 -4862 -4862 -4771 -4813 -4597 -4648 -4614 -4585 -4550 -4372 -4524 -4588 -4678 -4530 -4517 -4536 -4424 -4424 -4572 -4711 -4685 -4601 -4630 -4502 -4748 -4088 -4204 -4330 -4398 -3778 -2267 -2559 -2559 -3282 -3246 -3362 -3457 -3521 -3935 -4250 -3623 -3599 -2592 -2401 -2836 -2431 -4904 -4447 -4447 -4225 -4827 -4833 -4784 -4811 -4834 -4833 -4970 -4985 -4636 -4731 -4738 -4684 -4712 -4402 -4402 -4586 -4627 -4658 -4668 -4685 -4642 -4651 -4691 -4714 -4854 -4688 -4224 -2689 -3381 -3881 -3881 -4583 -4624 -4674 -4666 -4604 -4631 -4649 -4475 -4921 -4635 -4644 -3944 -3652 -5032 -5742 -5742 -2068 72 -1351 -1704 -295 1466 420 109 54 275 47 13 27 -6 -6 -2 -25 -30 -36 -38 -40 -31 -24 -9 -9 79 63 265 163 135 135 90 79 110 61 60 71 166 173 10 -47 -742 -2202 -2133 -170 1286 1286 1355 -32 425 540 1091 -684 -30 -1439 -1549 -2691 -2584 -2457 -2098 -3224 -1949 -1949 -13 -1001 -832 -741 -31 -391 -1 47 218 264 985 690 1797 -150 -335 -335 -718 -1330 -4 -45 -339 -284 -1305 -3215 -4271 -3185 -3190 -3662 -3945 -3414 -3414 -4162 -3980 -2338 -899
-4109 -4357 -4424 -4219 -4279 -4279 -4090 -4219 -4209 -4261 -4339 -4322 -4146 -4044 -4108 -4060 -4006 -3993 -3930 -3862 -3862 -3795 -3891 -3823 -3951 -3781 -3793 -3803 -3766 -3649 -3580 -3443 -3412 -3303 -3209 -2614 -2614 -3339 -3365 -3546 -3437 -3278 -3373 -3406 -3403 -3374 -3376 -3357 -3373 -3397 -3361 -3379 -3379 -3384 -3347 -3388 -3399 -3224 -3181 -3105 -3377 -2833 -3055 -2917 -2896 -2962 -2959 -2812 -2812 -2793 -2634 -2562 -2447 -2211 -2168 -2127 -1821 -2136 -1828 -2381 -1503 108 65 6 6 390 3337 3082 595 439 304 244 243 247 169 192 179 140 168 168 144 136 141 124 147 137 95 82 63 70 81 54 65 63 73 73 69 63 62 60 50 21 50 39 54 196 58 125 170 95 112 112 61 93 26 54 89 38 79 27 1 3 -9 53 13 16 11 11 15 -2 22 21 29 43 51 16 52 3 12 -16 -23 -32 -1407 -1407 -2637 -2515 -3002 -3261 -3328 -3393 -3466 -3223 -3468 -3368 -3459 -4097 -3599 -2961 -2961 -4065 -4130 -4254 -4336 -4386 -4736 -4532 -4674 -4594 -4840 -4924 -4879 -4779 -4749 -5023 -5023 -5204 -5136 -5396 -5151 -5222 -5081 -4587 -4377 -4572 -4611 -4753 -4781 -4818 -4866 -4790 -4790 -4692 -4442 -4038 -3794 -4212 -4219 -4662 -4667 -4133 -4500 -3922 -3737 -3577 -3232 -2492 -2492 -2557 -2813 -3667 -3670 -4148 -3680 -4157 -4759 -4059 -4028 -4672 -4903 -4487 -4936 -4936 -4936 -5128 -4932 -5154 -5098 -4980 -5149 -5057 -5014 -4869 -4453 -4668 -4817 -4764 -4655 -4655 -4570 -4080 -4103 -4041 -2956 -4273 -3852 -3751 -3477 -3528 -3484 -3200 -2787 -1980 -164 -164 -2 42 107 247 357 724 771 737 421 416 633 484 476 444 287 287 301 380 321 292 306 318 360 360 385 433 421 452 442 445 455 455 488 637 485 486 545 608 1017 1018 1118 1869 1461 1460 1565 1325 1296 1296 397 397 397 397 1224 1324 1578 1960 2070 770 1769 1702 1023 678 678 383 234 104 70 41 16 -1071 -2305 -2950 -3248 -3550 -3721 -3999 -4244 -4408 -4408 -4590 -4705 -4771 -4844 -4889 -4882 -5046 -5060 -5112 -5062 -5090 -5076 -5104 -4864 -4934 -4934 -4710 -4500 -4429 -4462 -4474 -4551 -4432 -4422 -4453 -4427 -4440 -4325 -4165 -4501 -4663 -4663 -4702 -4798 -4630 -4628 -4398 -4254 -3996 -4328 -4098 -4032 -3734 -3259 -3208 -2548 -2548 -2332 -2760 -3315 -4046 -3985 -4680 -4193 -2933 -3502 -1625 -2950 -3045 -2245 -5018 -4654 -4654 -4262 -4584 -4642 -4901 -4868 -4902 -4919 -5004 -4875 -4865 -4820 -4823 -4611 -4371 -4871 -4871 -4833 -4750 -4700 -4675 -4698 -4690 -4690 -4714 -4784 -4475 -4859 -3476 -2869 -4780 -4731 -4731 -4716 -4683 -4708 -4716 -4678 -4679 -4686 -4676 -4745 -4368 -3775 -4354 -4230 -4996 -4959 -4959 -3961 -831 6 -1766 -1146 7 1820 455 107 82 30 29 30 -7 -7 -10 -2 -28 -31 -32 -39 -41 -8 -17 -13 24 81 160 182 84 84 25 43 45 47 18 105 350 3 -40 -66 -1762 -2310 -1678 -261 1177 1177 1566 826 1657 75 -880 -641 -41 -81 -8 1027 139 -19 -406 -1518 -585 -585 -294 -1948 -1357 -668 -42 158 -22 -36 -8 33 64 170 405 -13 -156 -156 -831 -8 752 95 10 21 28 -107 -2082 -2864 -2763 -2846 -3690 -2739 -2739 -2700 -1814 -2348 -1511
-4394 -4374 -4276 -4244 -4135 -4135 -4066 -4246 -4247 -4340 -4336 -4275 -4085 -4039 -4094 -3976 -3950 -4002 -3947 -3948 -3948 -3947 -3987 -3735 -3776 -3835 -3808 -3682 -3602 -3689 -3567 -3586 -3342 -3346 -3196 -3314 -3314 -3214 -3257 -3365 -3441 -3460 -3486 -3452 -3413 -3439 -3430 -3425 -3385 -3380 -3427 -3191 -3191 -3511 -3379 -3335 -3443 -3422 -3392 -3139 -3043 -3305 -3108 -3164 -3082 -3130 -3089 -3157 -3157 -3028 -3172 -2980 -2846 -2750 -2788 -1723 -2816 -2707 -2563 -3043 -993 54 87 2 2 134 2881 2173 698 332 309 212 206 193 162 140 175 156 143 143 146 107 110 112 127 156 113 110 111 75 73 76 56 52 43 43 64 69 54 60 59 52 50 67 58 110 79 98 35 75 122 122 63 24 7 12 16 2 1 92 63 49 48 50 31 36 31 31 18 13 24 30 40 58 93 49 59 21 4 -21 -7 -22 -25 -25 -38 -36 -36 -43 -36 -47 -1989 -2979 -670 -3622 -3540 -3570 -4135 -3832 -3832 -3849 -3998 -4279 -4222 -4224 -4331 -4332 -4626 -4554 -4634 -4775 -4874 -4889 -4879 -4928 -4928 -5002 -4955 -4676 -4941 -5220 -5106 -5096 -4631 -4343 -4094 -4677 -4691 -4610 -4325 -4489 -4489 -5035 -5436 -4833 -2793 -4080 -4799 -5015 -4086 -4079 -3841 -3816 -4174 -3583 -3783 -3075 -3075 -3490 -3499 -3388 -3332 -3599 -4239 -4037 -4284 -4320 -4104 -4323 -4775 -4852 -4619 -4839 -4839 -4881 -5104 -4974 -5073 -5022 -4981 -5010 -4492 -5119 -4391 -4528 -4751 -4368 -2778 -2778 -4573 -4570 -4387 -4404 -4156 -4341 -1628 -3875 -3751 -3898 -3762 -3479 -3183 -2611 -790 -790 -40 48 262 301 128 423 687 678 641 517 612 577 671 473 295 295 353 339 300 322 314 318 331 392 412 404 482 432 430 449 506 506 488 520 480 503 539 554 585 645 1084 2275 1868 1681 1355 1610 1346 1346 397 397 397 397 397 1295 1361 1789 1267 760 1523 1240 986 841 841 361 214 123 16 4 -330 -2308 -2898 -3162 -3467 -3641 -3859 -4071 -4264 -4470 -4470 -4641 -4734 -4822 -4852 -4885 -4935 -5097 -5083 -5087 -5038 -5001 -5116 -4901 -5071 -5723 -5723 -4491 -4553 -4109 -4316 -4394 -4432 -4426 -4383 -4429 -4432 -4339 -4607 -4395 -3726 -4613 -4613 -4646 -4689 -4684 -4644 -4678 -4228 -3706 -4232 -3690 -3156 -3852 -3717 -3010 -3126 -3126 -3491 -4100 -3662 -4288 -3873 -3755 -3852 -4126 -4250 -3519 -2827 -3010 -3974 -5036 -4645 -4645 -4488 -5014 -4982 -5022 -4897 -4869 -5055 -4985 -4875 -4902 -4875 -4712 -4865 -4895 -4584 -4584 -4778 -4769 -4822 -4746 -4757 -4765 -4739 -4713 -4637 -4125 -4808 -4374 -3154 -4608 -4316 -4316 -4714 -4678 -4749 -4740 -4750 -4732 -4746 -4726 -3700 -4956 -4302 -4710 -4726 -4986 -4522 -4522 -5169 -3633 -1891 23 -1659 -704 403 694 181 37 70 22 5 3 3 -10 -2 -5 -25 -29 -31 -36 -35 -32 -15 7 60 54 29 58 58 7 22 25 15 21 21 161 27 -26 -48 -312 -2197 -1801 11 1487 1487 1919 1630 309 6 -1042 -1118 -2381 -3101 -3452 -3849 -3868 -4042 -3646 -2823 -3047 -3047 -3191 -3927 -2119 -885 -652 -175 -96 -94 -38 -2 15 -4 7 -138 -231 -231 -247 -403 -19 3 81 347 259 145 109 -386 -1010 -2172 -3002 -3681 -3681 -3157 -2667 -2600 -1568
-4342 -4227 -4281 -4155 -4205 -4205 -4340 -4122 -4239 -4282 -4312 -4208 -4101 -4026 -4019 -3907 -3918 -3933 -3889 -3883 -3883 -3905 -3896 -3743 -3816 -3669 -3971 -3538 -3663 -3685 -3634 -3484 -3642 -3384 -3133 -3282 -3282 -3369 -3323 -3626 -3561 -3298 -3547 -3520 -3563 -3554 -3580 -3532 -3531 -3553 -3514 -3568 -3568 -3397 -3505 -3598 -3599 -3467 -3514 -3321 -3195 -3177 -3139 -3087 -3236 -3328 -3205 -2929 -2929 -3244 -3163 -3215 -3241 -3089 -2880 -2913 -3056 -2972 -3002 -3263 -1423 -60 -3 4 4 4185 2670 705 258 256 268 254 211 196 222 126 145 148 140 140 128 132 109 108 94 75 111 128 83 97 55 69 82 51 37 37 44 60 64 57 54 50 51 75 14 77 96 44 78 50 7 7 8 11 100 88 64 99 85 174 155 147 101 92 69 65 60 60 13 41 56 43 79 124 60 88 46 38 4 -1 56 40 6 6 -1 -4 -9 -9 -4 -9 -35 -1834 -2448 -2805 -3357 -3490 -3630 -3646 -3646 -3840 -4171 -4041 -4048 -4059 -4168 -4323 -4330 -4484 -4713 -4845 -4858 -4895 -4931 -5118 -5118 -5302 -5103 -5303 -5394 -5282 -5391 -5631 -4725 -4762 -4936 -4868 -5482 -5675 -5820 -5336 -5336 -4833 -4797 -4613 -5071 -4867 -4668 -4138 -4874 -4440 -4430 -4794 -4466 -3666 -3557 -3526 -3526 -3466 -3045 -3291 -3371 -4270 -3684 -3914 -4201 -3824 -4023 -4270 -4588 -4462 -4676 -4828 -4828 -4993 -4930 -4870 -4790 -4690 -4269 -3985 -4948 -4788 -4738 -4588 -3230 -4393 -4113 -4113 -4466 -4223 -3062 -4462 -4487 -4548 -4404 -4110 -4103 -4152 -4053 -4046 -3611 -3350 -1351 -1351 -84 -37 24 59 367 236 382 571 624 551 715 649 724 400 388 388 403 301 291 327 342 339 353 356 387 464 425 531 515 510 455 455 514 514 496 506 534 708 581 861 1462 2031 1615 1608 1622 1540 1494 1494 1140 1297 1217 1211 1260 1399 1603 1703 1468 1032 1290 1206 1043 680 680 401 199 182 -7 -190 -1644 -2729 -3124 -3357 -3527 -3668 -3922 -4145 -4325 -4548 -4548 -4709 -4781 -4855 -4864 -4941 -5031 -5012 -5033 -5040 -5144 -4997 -4868 -4806 -4766 -4057 -4057 -3456 -4208 -3772 -3538 -3832 -4267 -4255 -4382 -4385 -4439 -4272 -4232 -4214 -3969 -4480 -4480 -4464 -4671 -4617 -4108 -4185 -4279 -3642 -4250 -3354 -3288 -3066 -3493 -3239 -3648 -3648 -3334 -2926 -3337 -3900 -3880 -4034 -3926 -4678 -4240 -3319 -3446 -3121 -4587 -4880 -4887 -4887 -5258 -4817 -4941 -4869 -4900 -4942 -4869 -4945 -4966 -4949 -4997 -4880 -5077 -4485 -3364 -3364 -4160 -4781 -4819 -4806 -4798 -4835 -4794 -4704 -4764 -4762 -4904 -4142 -3141 -3222 -3242 -3242 -4377 -4576 -4793 -4749 -4781 -4758 -4718 -4794 -4684 -4671 -4671 -4642 -4672 -4847 -3746 -3746 -4293 -5681 -3602 -1608 -32 -1150 -13 609 850 88 57 43 6 5 5 7 7 30 -7 -29 47 26 -36 -37 -24 6 20 26 11 22 22 21 6 20 6 6 12 371 152 -28 -41 -34 -93 -166 779 2135 2135 16 -19 551 824 -376 -3204 -4331 -4553 -4180 -4756 -4272 -4721 -3997 -2719 -1805 -1805 -4290 -929 -432 -473 -539 -691 -1338 -1348 -61 638 -14 37 54 104 -249 -249 -463 -194 25 360 454 483 96 300 185 449 546 61 516 -403 -403 -2198 -1972 -2063 -2138
-4182 -4085 -4268 -4254 -4150 -4150 -4090 -4320 -4234 -4343 -4361 -4269 -4091 -3991 -3968 -4012 -3922 -3917 -3981 -3926 -3926 -3885 -3894 -3772 -3737 -3694 -4089 -3785 -3504 -3483 -3421 -3731 -3591 -3498 -3224 -3300 -3300 -3299 -3449 -3332 -3485 -3456 -3538 -3711 -3557 -3696 -3523 -3624 -3764 -3726 -3481 -3680 -3680 -3506 -3645 -3636 -3656 -3648 -3644 -3549 -3348 -3334 -3402 -3371 -3386 -2720 -3355 -2887 -2887 -3117 -3255 -3071 -3321 -3290 -3202 -3149 -3060 -2789 -3212 -4707 -1080 -84 -17 294 294 1534 2412 1125 382 226 225 212 201 168 187 163 145 111 137 137 107 114 138 126 114 143 77 61 55 79 83 90 76 69 69 69 28 38 37 51 27 54 51 44 13 23 22 11 20 13 25 25 40 46 89 89 1 103 183 189 185 122 110 83 57 91 40 40 29 79 70 76 73 205 96 76 67 6 10 27 69 94 80 80 20 53 65 71 81 59 29 -34 -72 -1840 -3004 -3035 -2271 -3526 -3526 -3606 -3861 -3941 -4083 -4056 -4303 -4289 -4345 -4476 -4796 -4794 -4889 -4982 -5039 -5081 -5081 -5146 -5234 -5408 -5344 -5381 -5375 -5130 -5163 -4725 -4394 -4797 -5444 -5479 -5172 -5331 -5331 -4912 -4933 -4960 -4906 -4623 -4570 -4535 -4472 -4071 -4120 -4498 -4138 -3494 -3388 -3782 -3782 -3454 -3432 -3231 -3256 -4006 -3791 -3493 -4153 -3871 -4373 -4112 -4288 -4141 -4357 -4780 -4780 -5150 -5023 -4401 -4735 -4790 -4481 -4457 -4594 -4434 -4131 -4070 -4418 -4087 -4604 -4604 -3746 -3868 -4495 -4859 -4693 -4666 -4536 -4522 -4438 -4320 -4298 -4154 -4012 -3669 -2246 -2246 -1530 -216 -42 168 244 174 124 385 460 650 566 531 667 631 406 406 367 297 337 366 345 373 376 409 394 437 412 434 578 441 554 554 564 499 486 498 537 609 645 1024 1016 2329 788 1841 1402 1491 1220 1220 1175 1273 1150 1176 1333 1294 1624 1672 1754 1353 4040 1251 922 849 849 435 243 174 -213 -691 -2087 -2902 -3323 -3516 -3611 -3811 -4040 -4295 -4472 -4609 -4609 -4734 -4822 -4844 -4860 -4951 -4843 -5003 -5054 -5075 -5077 -5069 -4999 -4726 -4519 -3744 -3744 -3420 -3642 -2946 -3120 -3603 -3826 -4076 -4315 -4210 -4300 -4398 -3823 -3053 -4010 -4044 -4044 -4318 -4531 -4263 -3825 -4045 -4420 -4437 -4474 -3869 -4079 -3217 -3351 -3324 -2477 -2477 -2102 -2534 -3498 -3778 -3562 -3817 -4463 -4456 -3997 -3730 -4058 -3276 -5012 -4907 -4641 -4641 -4859 -5060 -4877 -5003 -4959 -4837 -4845 -4830 -5034 -4928 -4999 -5080 -5104 -4921 -3151 -3151 -2466 -4840 -4874 -4794 -4863 -4838 -4838 -4775 -4877 -4881 -4765 -3611 -3346 -3858 -3696 -3696 -4375 -4834 -4892 -4815 -4808 -4771 -4787 -4729 -4815 -4783 -4859 -4430 -5017 -4933 -4211 -4211 -4300 -5381 -5352 -3557 -512 -901 -625 60 1695 297 60 62 15 6 6 9 6 -5 -18 -12 -3 -4 -24 -37 -31 -15 -12 -17 -2 15 15 13 -2 5 5 5 92 41 126 -36 -38 -39 -38 -1337 523 671 671 71 -838 1629 148 446 -284 -2627 -5021 -4749 -4963 -5101 -3878 1922 449 -1001 -1001 -49 -123 116 405 524 476 -127 -996 -1289 -965 126 56 181 431 257 257 -205 106 725 634 119 393 73 55 65 281 213 399 618 511 511 109 -50 -269 -2555
-4255 -4261 -4169 -4103 -4140 -4140 -4298 -4201 -4296 -4335 -4342 -4213 -4133 -4028 -3964 -4016 -3872 -3946 -3784 -3825 -3825 -3775 -3727 -3672 -3651 -3378 -3545 -3505 -3502 -3234 -3422 -3550 -3215 -3476 -3708 -3190 -3190 -3329 -3492 -3462 -3405 -3588 -3606 -3678 -3678 -3627 -3551 -3896 -3742 -3814 -3635 -3161 -3161 -3680 -3681 -3701 -3679 -3776 -3751 -3650 -3626 -3519 -3497 -2974 -3701 -3408 -3602 -3635 -3635 -3367 -3260 -3236 -3439 -3126 -3160 -3037 -2720 -3529 -3804 -4340 -493 93 221 788 788 2416 851 826 203 193 186 176 165 147 134 143 118 94 140 140 126 123 84 86 108 136 138 131 101 100 90 97 59 88 85 85 76 78 33 38 49 37 29 39 35 31 32 37 39 42 47 47 31 98 108 145 118 215 233 154 205 238 164 131 112 116 113 113 210 129 92 138 209 113 224 97 38 35 8 50 63 86 64 64 113 85 392 152 95 172 72 143 -15 -60 -2194 -2727 -3016 -1359 -1359 -1486 -550 -3898 -961 -612 -3901 -3446 -4121 -4578 -4621 -4718 -4922 -4954 -5124 -5163 -5163 -5240 -5271 -5425 -5491 -5417 -5523 -5249 -4841 -4906 -4500 -5034 -5219 -4820 -5359 -5019 -5019 -4775 -4885 -4867 -4641 -4362 -4987 -4616 -4222 -3894 -3951 -3866 -3974 -3875 -3522 -3604 -3604 -3115 -1855 -3130 -3341 -4039 -3472 -3894 -3827 -3686 -4171 -4197 -4618 -4340 -4110 -4387 -4387 -4618 -4453 -4651 -4685 -4459 -4678 -4528 -4407 -3991 -4306 -4942 -3654 -4501 -4428 -4428 -4772 -4337 -4653 -4951 -4989 -4949 -4802 -4743 -4539 -4538 -4430 -4254 -4128 -4029 -3490 -3490 -2384 -1729 -381 -40 78 275 93 132 384 560 428 454 734 646 583 583 446 312 342 359 359 379 455 409 485 480 547 490 615 581 496 496 519 474 520 504 531 630 725 699 1588 2201 767 1898 1195 1219 1098 1098 1204 1155 1164 1210 1107 1110 1029 1305 954 1377 992 1108 740 741 741 496 285 72 -885 -867 -2085 -2906 -3334 -3653 -3772 -4018 -4305 -4486 -4622 -4718 -4718 -4766 -4797 -4863 -4888 -4177 -4592 -4874 -5065 -5097 -5193 -5045 -5065 -4318 -4137 -2474 -2474 -2390 -2832 -1296 -27 -27 -2677 -3752 -4115 -4064 -4100 -4080 -3994 -4035 -3768 -3238 -3238 -4154 -4075 -3929 -4269 -4308 -4245 -4697 -4273 -3987 -3796 -3701 -3721 -3715 -3180 -3180 -2391 -2906 -3778 -3263 -3727 -4370 -3430 -4226 -3879 -3354 -3244 -2885 -5129 -4806 -4844 -4844 -4895 -5022 -5034 -5047 -5124 -4892 -5089 -5290 -4926 -4926 -5003 -5143 -5165 -5012 -3639 -3639 -4635 -4762 -4858 -4696 -4975 -4943 -4890 -4659 -4874 -4969 -5226 -3389 -3073 -3293 -3717 -3717 -4301 -4894 -4879 -4888 -4849 -4689 -4786 -4875 -4893 -4971 -4929 -4655 -4802 -5203 -4304 -4304 -5008 -4893 -4998 -5131 -2362 -131 -976 -359 0 318 170 75 57 47 47 6 10 -10 -22 -21 -21 -24 -37 -43 -35 -33 -34 -37 -25 -21 -21 -16 -14 -13 -25 9 35 -3 17 -36 -47 -936 -1917 -1829 -793 28 28 112 -1076 1012 294 591 -402 -1620 -4814 -4547 -3705 -4108 -4133 -2831 446 -1908 -1908 -3737 -1729 -1233 -3698 -2821 -1408 130 -663 -1442 -2035 -22 25 -25 235 460 460 1420 1409 839 2747 1917 2222 3203 1653 1416 298 360 766 169 87 87 221 138 109 237
-4307 -4182 -4198 -4282 -4316 -4316 -4208 -4248 -4271 -4284 -4225 -4262 -4139 -4102 -4034 -4063 -3917 -3688 -3550 -3533 -3533 -3756 -3612 -3574 -3348 -3179 -3548 -3350 -3198 -3205 -3328 -3184 -3419 -3328 -3395 -3641 -3641 -3483 -3402 -3464 -3862 -3747 -3775 -3669 -3823 -3704 -3661 -3748 -3648 -3736 -3447 -3658 -3658 -3745 -3934 -3857 -3834 -3720 -3832 -3805 -3750 -3614 -3543 -3611 -3700 -3881 -3486 -3681 -3681 -3382 -3383 -3596 -3546 -3393 -2818 -3690 -3749 -3259 -3872 -3613 -57 846 360 1676 1676 1550 1087 879 188 160 154 159 151 132 115 118 149 96 140 140 124 125 119 99 83 74 102 144 111 99 88 98 88 95 76 76 86 73 58 64 61 40 17 46 47 29 36 13 50 50 83 83 98 133 85 81 180 305 352 206 166 158 191 185 159 138 120 120 72 99 128 219 273 204 289 239 80 52 22 50 83 102 79 79 89 217 274 909 198 416 133 184 45 -10 -24 -2213 -2312 -2652 -2652 -3111 -3679 -4033 -4168 -294 -4283 -4332 -4479 -4619 -4643 -4800 -4900 -5014 -5177 -5271 -5271 -5389 -5151 -5207 -4929 -5305 -5322 -5083 -4882 -4859 -5410 -4774 -4812 -5273 -5070 -4702 -4702 -5136 -4620 -4507 -4798 -4946 -4829 -4169 -4434 -4377 -4367 -3891 -4050 -3917 -3774 -3873 -3873 -2854 -3140 -2978 -3550 -3192 -3558 -3832 -4072 -3694 -3358 -3922 -4126 -4272 -4234 -4502 -4502 -4358 -4760 -4623 -4489 -4398 -1752 -4738 -4377 -4654 -4546 -4292 -4990 -4885 -4645 -4645 -4643 -4828 -5231 -5229 -5124 -5038 -4899 -4886 -4822 -4712 -4482 -4329 -4177 -3976 -3749 -3749 -3481 -2931 -1745 -317 -36 29 266 390 165 279 419 448 314 686 613 613 535 412 404 432 462 420 508 487 446 490 472 513 523 524 516 516 602 540 563 528 478 575 681 645 793 2154 767 1536 1373 1121 1084 1084 1100 1136 1196 1221 1132 1105 1566 1737 1385 1220 1190 1204 706 601 601 486 194 -385 -783 -1479 -2040 -2912 -3374 -3777 -3995 -4252 -4395 -4549 -4637 -4686 -4686 -4719 -4811 -4977 -4942 -5054 -4931 -5012 -5160 -5206 -5171 -5140 -4898 -4668 -4009 -3183 -3183 -2882 -37 -65 -47 -11 -31 -2671 -3619 -3923 -4194 -4350 -4151 -4030 -3404 -3803 -3803 -3637 -3878 -3931 -4467 -4297 -3833 -3825 -4067 -4046 -3888 -3902 -3297 -3101 -2987 -2987 -3448 -3107 -3350 -3295 -4665 -4178 -4441 -3981 -2856 -2486 -2673 -2510 -5025 -4886 -5103 -5103 -4975 -5091 -5016 -4960 -4794 -4964 -4891 -5019 -4695 -4748 -5033 -5037 -4973 -4622 -3358 -3358 -3984 -4733 -4979 -4971 -4946 -4962 -4994 -4959 -5020 -5058 -4984 -3273 -2847 -4079 -4449 -4449 -4847 -4871 -4912 -4897 -4954 -4889 -4579 -4946 -4894 -4863 -4618 -5007 -4752 -4406 -4293 -4293 -4618 -4329 -4199 -5200 -5114 -2440 -5 -1293 -20 39 2220 862 94 73 73 34 2 -11 -23 -25 -31 -35 -45 -45 -36 -38 -48 -53 -47 -38 -38 -35 -28 -27 -26 -7 -20 -18 -31 -54 -67 -1910 -1870 -1993 -137 629 629 4 -1940 -616 579 113 244 -1967 -4820 -4789 -4491 -4958 -4740 -3480 -4753 -3764 -3764 -3953 -4575 -2360 -3699 -1631 -4493 -4138 -2306 -904 -915 -1440 -2219 -455 -1229 -19 -19 51 803 631 384 2121 1715 1506 3695 3011 2522 1256 419 627 117 117 24 44 8 8
-4265 -4227 -4309 -4162 -4125 -4125 -4139 -4298 -4298 -4335 -4251 -4198 -4149 -4042 -4037 -3873 -3757 -3676 -3483 -3180 -3180 -3242 -3490 -3376 -3470 -3330 -3154 -3123 -3177 -3412 -2985 -3388 -3535 -3554 -3457 -3442 -3442 -3373 -3759 -3673 -3935 -3767 -3604 -3767 -3715 -3657 -3786 -3802 -3789 -3752 -3808 -3741 -3741 -3909 -3891 -3904 -3970 -3978 -3898 -3923 -3868 -3665 -3227 -3880 -3967 -3752 -3667 -3568 -3568 -3642 -3716 -3677 -3638 -4015 -3908 -3837 -3301 -3580 -4359 -3602 2 82 215 1120 1120 2713 1658 436 924 151 162 133 124 118 116 114 102 149 153 153 116 136 116 104 109 136 157 140 123 122 115 68 107 92 78 78 74 67 56 66 52 27 56 43 39 42 47 24 54 72 93 93 156 85 89 240 225 206 186 186 222 162 210 209 171 171 180 180 149 93 242 189 347 340 309 358 305 204 128 133 128 113 98 98 113 271 434 332 379 479 465 115 78 33 -3 -19 -384 -20 -20 -88 -3416 -3902 -4289 -4534 -4483 -4423 -4580 -4768 -4347 -4908 -4978 -5064 -5270 -5374 -5374 -5390 -5566 -5638 -5643 -5291 -5086 -5463 -5553 -5239 -5968 -4917 -5432 -5073 -4872 -4799 -4799 -4990 -4680 -4687 -4518 -4533 -4218 -4482 -4176 -3841 -3921 -3573 -3918 -3644 -3756 -2971 -2971 -2225 -1804 -2876 -3694 -3660 -3440 -3695 -3696 -3882 -4136 -3903 -4258 -4038 -4609 -4427 -4427 -4571 -4655 -4685 -4734 -4441 -4492 -4760 -4570 -5162 -4588 -4384 -4562 -4712 -3720 -3720 -5096 -5094 -5278 -4456 -5206 -4944 -5024 -4942 -4786 -4664 -4519 -4377 -4231 -4048 -3754 -3754 -3431 -3226 -2767 -1927 -230 -21 88 225 366 312 428 526 440 533 582 582 482 472 465 449 382 516 441 513 524 440 576 470 519 466 524 524 573 627 578 577 566 598 567 919 691 1428 767 976 1113 1086 1079 1079 1114 1205 1154 1240 1073 1230 1539 1574 1527 1188 1041 1152 710 2104 2104 384 -20 -12 -1334 -1823 -2196 -3071 -3413 -3771 -4105 -4250 -4387 -4512 -4608 -4612 -4612 -4677 -4701 -4770 -4825 -4895 -4893 -4990 -5062 -5070 -5036 -5057 -4821 -4641 -3861 -2615 -2615 -2242 -885 -43 -56 -45 -98 -1397 -2370 -3642 -3961 -4135 -4170 -4126 -3834 -3941 -3941 -3783 -3282 -3776 -4011 -4350 -4449 -3705 -4276 -3930 -3830 -3575 -3765 -3127 -3940 -3940 -2274 -2169 -3217 -3689 -3910 -4606 -4439 -3396 -1001 -2223 -2118 -3103 -4911 -5153 -5017 -5017 -4957 -5011 -5010 -5016 -5121 -4901 -5176 -5145 -5042 -5107 -5058 -4950 -4968 -5024 -3898 -3898 -4814 -5203 -5038 -4978 -4923 -4914 -4963 -5034 -5056 -5056 -5017 -4068 -3075 -4385 -4859 -4859 -5158 -5040 -4931 -4980 -5003 -4917 -4813 -4941 -5000 -4979 -4947 -5135 -5142 -4544 -4975 -4975 -4664 -4616 -4833 -5607 -5805 -3453 -1533 -1350 -1571 -965 -34 1062 438 68 68 29 10 -13 -23 -28 -39 -39 -46 -33 -54 -72 -57 -50 -50 -48 -48 -53 -43 -37 -27 -19 -30 -18 -47 -57 -211 -1464 -1921 -1097 -9 345 345 157 -395 -1113 66 -12 -8 -111 -3777 -4595 -4686 -4170 -3956 -3486 -2866 -3424 -3424 -3932 -4927 -4532 -4027 -4214 -2736 -6453 -4848 110 -855 -945 -2198 -1976 -1892 -63 -63 -73 -46 -22 18 22 40 31 54 87 1001 1951 1832 1111 754 754 130 264 200 81
-4291 -4198 -4153 -4221 -4190 -4190 -4326 -4222 -4240 -4211 -4239 -4228 -4213 -4078 -4016 -3804 -3411 -3731 -3407 -3664 -3664 -3490 -3310 -3022 -3254 -3177 -3207 -3113 -3239 -3301 -3393 -3549 -3522 -3387 -3642 -3784 -3784 -3639 -3849 -3567 -3907 -3941 -3933 -3722 -3957 -3875 -3694 -3641 -3662 -3747 -3852 -3899 -3899 -3898 -3772 -3959 -3947 -3909 -4098 -4085 -4004 -3789 -3817 -3842 -3892 -3796 -3944 -3867 -3867 -3759 -3515 -4135 -4140 -3961 -3634 -3829 -3379 -4049 -4335 -3571 -89 37 195 400 400 3246 1039 409 1055 728 203 144 126 121 118 104 150 125 155 155 155 142 115 118 120 161 137 156 125 129 80 110 107 99 94 94 81 83 56 53 59 65 59 55 48 45 49 86 106 106 146 146 215 100 175 204 206 245 265 181 229 202 236 188 179 220 172 172 184 81 116 104 144 366 236 305 235 221 157 165 127 165 138 138 132 150 380 314 359 447 207 140 42 123 21 6 37 87 87 -12 -1920 -3884 -4357 -4517 -4601 -4573 -4637 -4830 -5010 -5044 -5075 -5264 -5441 -5543 -5543 -5357 -5708 -5539 -4546 -5493 -5614 -4942 -5464 -5345 -5407 -5155 -5065 -5110 -5251 -4860 -4860 -4776 -4938 -4713 -4571 -4279 -4259 -3824 -3593 -4096 -3865 -3875 -3719 -3344 -3237 -3373 -3373 -3715 -2671 -2485 -2476 -3324 -3451 -3294 -3683 -3721 -3842 -4035 -3953 -4154 -4353 -4783 -4783 -4313 -4949 -5017 -5834 -5276 -4868 -5070 -4937 -4137 -4165 -3775 -4504 -4847 -4957 -4957 -4302 -5574 -5069 -5465 -5132 -3776 -2770 -4862 -4763 -4644 -4520 -4370 -4193 -3963 -3762 -3762 -3411 -3032 -2632 -1991 -1320 -78 50 91 342 301 457 499 593 759 641 641 753 806 631 739 510 713 485 479 494 412 500 531 603 574 581 581 659 693 534 616 611 628 708 1068 832 891 767 767 1428 1116 1059 1059 1074 1118 1146 1251 1212 1179 1434 1255 1197 1401 1258 1267 837 515 515 262 -540 1 -1623 -2053 -2594 -3073 -3432 -3790 -4025 -4181 -4325 -4452 -4495 -4559 -4559 -4630 -4652 -4734 -4745 -4857 -4567 -4921 -4863 -5038 -4961 -4777 -4836 -4611 -3619 -33 -33 -3199 -3288 -3019 -2545 -38 -45 -36 -1305 -2669 -3481 -3897 -3985 -4038 -4065 -3906 -3906 -3916 -3569 -3753 -4211 -4198 -3965 -4181 -4110 -4105 -3485 -3861 -4226 -4687 -2680 -2680 -2812 -3969 -3348 -3837 -4038 -4291 -2995 -5 -127 -2036 -2589 -5109 -4516 -5206 -5414 -5414 -5299 -5406 -5247 -5260 -5140 -5259 -5331 -5207 -5218 -5084 -5146 -5182 -5195 -5183 -4324 -4324 -5066 -5261 -4939 -4910 -4981 -4980 -5020 -5063 -5130 -5006 -5097 -4387 -3461 -4321 -4870 -4870 -4893 -5040 -5006 -5030 -4592 -5009 -4997 -5049 -5046 -5052 -4248 -5063 -4769 -4704 -4702 -4702 -4710 -4950 -5005 -5346 -5569 -6256 -2840 -1566 -27 -1467 -1917 -966 380 332 332 72 15 -9 -15 -22 -34 -42 -47 -47 -66 -53 -63 -49 -41 -44 -44 -46 -42 -44 -25 -20 -35 -46 -49 -46 -722 -52 -731 -612 -16 377 377 114 -1454 -2306 -7 -19 12 -52 -1360 -65 -5352 -3734 -3511 -3540 -2874 -1994 -1994 -2350 -1474 -4847 -5022 -4419 -1718 -6526 -6444 -4392 -630 -260 -1563 -3514 -2188 -20 -20 -88 -79 -43 -26 -7 23 22 26 21 45 141 358 1369 2423 2423 1890 1779 2069 1376
-4291 -4359 -4530 -4097 -4081 -4081 -4112 -4111 -4215 -4151 -4150 -4257 -4171 -4278 -3912 -4159 -3568 -3582 -3381 -3555 -3555 -3284 -3629 -3616 -3308 -3117 -2787 -3147 -3278 -3510 -3885 -3453 -3471 -3426 -3637 -3997 -3997 -3935 -3933 -3879 -3888 -3844 -3731 -3516 -3456 -4348 -3808 -3775 -3821 -3843 -3833 -3879 -3879 -3922 -3854 -3923 -3882 -3981 -4123 -4034 -4154 -3991 -3909 -3862 -3646 -4020 -3895 -3770 -3770 -4016 -4024 -4001 -3886 -4125 -4150 -4134 -3889 -2588 -4490 -4577 -138 3 102 504 504 2757 888 983 2835 890 1062 159 187 132 110 118 133 175 139 139 165 193 178 133 184 178 146 165 153 92 128 91 85 94 90 90 84 53 53 69 36 67 65 55 57 24 74 78 120 203 167 167 126 192 141 204 245 256 211 292 236 214 290 240 215 243 183 183 140 115 170 113 251 191 241 248 154 196 229 286 196 202 225 225 153 244 454 418 472 288 268 129 103 74 80 108 232 104 104 43 -2961 -4070 -4339 -4482 -4666 -4680 -4871 -4991 -5090 -5170 -5205 -5376 -5467 -5604 -5604 -5750 -5609 -5760 -5500 -5394 -5789 -5255 -5544 -5056 -5243 -5413 -4938 -5263 -5212 -5110 -5110 -4944 -4817 -4591 -4532 -4432 -4368 -4023 -4004 -3958 -3779 -3904 -3773 -3692 -3370 -3411 -3411 -3444 -2987 -2379 -2718 -3109 -3205 -3414 -3560 -3616 -3685 -4488 -3796 -4891 -4570 -4773 -4773 -5260 -4961 -5411 -5224 -4767 -4758 -4363 -4546 -4136 -4419 -4670 -4479 -5088 -3352 -3352 -5411 -5180 -5350 -1057 -5335 -5099 -5090 -4956 -4817 -4665 -4501 -4381 -4194 -3977 -3771 -3771 -3492 -3104 -2632 -1908 -736 -84 10 91 246 327 425 443 734 735 547 547 756 751 785 786 549 733 678 564 519 580 578 571 640 578 574 574 749 622 716 592 665 600 581 661 802 1251 977 767 1299 1389 1070 1070 1073 1089 1139 1252 1291 1331 1315 870 1190 1099 1359 924 596 453 453 83 -7 -1161 -1656 -2049 -2756 -3181 -3520 -3805 -3987 -4145 -4343 -4434 -4461 -4541 -4541 -4535 -4517 -4602 -4796 -3792 -4964 -3632 -4096 -4777 -4991 -4964 -4746 -4350 -4495 -12 -12 -2913 -3489 -3493 -1982 -3250 -674 -203 -1218 -1079 -2443 -3887 -4077 -4080 -4071 -4049 -4049 -3823 -4015 -3971 -4133 -3874 -3967 -4265 -3749 -4201 -3703 -4147 -4183 -3071 -3366 -3366 -3589 -2986 -3885 -4135 -4045 -3776 -1956 -315 -36 -407 -2997 -5417 -4620 -5101 -5291 -5291 -5176 -5228 -5202 -5190 -5103 -5035 -5189 -5241 -5177 -5154 -5194 -5184 -5068 -5337 -5272 -5272 -5380 -5248 -4879 -5147 -4945 -4987 -5054 -5092 -5109 -5212 -4838 -3724 -3715 -3399 -4512 -4512 -4574 -5079 -4985 -5195 -4738 -5036 -5041 -5062 -5129 -5096 -4627 -5220 -4896 -5317 -5525 -5525 -4965 -5483 -5225 -5080 -5144 -5763 -5708 -3084 -1632 -1176 -2141 -2225 -473 -259 -259 -5 34 -14 -10 -9 -18 -20 -45 -39 -56 0 -35 -32 -33 -38 -38 -8 -48 -77 -60 -49 -64 -69 -51 -273 -156 -150 -119 -758 -804 -19 -19 -105 -1286 -2495 -2232 -1607 -992 -3623 -24 -138 -2258 -2514 -2964 -3569 -3878 -3618 -3618 -3523 -4945 -4909 -4331 -3496 -3692 -6426 -6728 -5302 -138 45 -1460 -3508 6 -10 -10 -34 -46 -40 -28 -17 -6 19 23 30 14 41 85 78 77 77 278 1865 3135 2930
-4156 -4255 -4047 -4171 -4348 -4348 -4270 -4128 -4139 -4143 -4204 -4225 -4213 -4237 -4068 -3886 -3712 -3489 -3646 -3661 -3661 -3317 -3335 -2704 -3238 -3320 -2871 -2854 -3240 -3520 -3710 -3715 -3690 -3821 -3726 -4209 -4209 -3967 -4011 -4193 -3713 -4015 -3949 -4018 -3845 -3600 -3623 -3829 -3870 -3908 -3843 -4157 -4157 -4095 -3870 -4012 -4021 -4049 -4168 -4143 -4098 -3911 -3966 -3996 -4123 -4028 -3956 -4066 -4066 -4295 -3859 -4058 -4351 -4148 -3939 -4033 -4142 -4057 -4434 -5379 -1289 -20 13 95 95 3282 2792 1443 2449 1653 1396 191 148 119 133 114 154 174 170 170 170 170 150 184 220 137 189 165 141 136 122 121 109 101 91 91 75 62 75 75 72 35 36 70 60 62 119 102 129 115 64 64 159 217 167 208 314 237 238 258 259 227 245 235 327 233 375 375 209 172 177 132 302 197 259 284 287 360 327 343 349 181 176 176 261 216 496 565 365 409 220 147 268 315 124 289 505 205 205 64 -587 -2484 -4332 -4543 -4639 -4735 -4847 -5017 -5135 -4397 -5309 -5307 -5435 -5566 -5566 -5551 -5573 -5636 -5584 -5511 -5581 -5167 -5316 -4736 -5520 -5591 -5103 -5172 -4483 -4976 -4976 -4629 -4686 -3934 -4172 -4020 -4145 -4341 -4307 -4057 -4107 -3636 -3900 -4031 -3464 -3505 -3505 -3276 -3051 -2796 -2554 -3106 -3247 -3549 -4102 -4470 -4597 -4497 -4611 -4808 -4286 -4767 -4767 -4669 -4637 -4823 -5158 -4699 -4046 -4562 -4619 -4409 -4059 -4191 -1986 -4628 -2175 -2175 -5472 -4811 -5408 -5081 -5188 -4982 -4916 -4941 -4768 -4681 -4580 -4445 -4242 -4010 -3826 -3826 -3658 -3433 -2799 -2112 -824 -108 -10 114 136 378 481 1013 862 631 607 607 523 521 800 891 877 820 575 621 573 638 670 690 750 707 609 609 765 723 737 654 735 594 594 647 833 870 1007 1113 1302 1257 1178 1178 1115 1089 1113 1183 1435 1295 1177 833 1228 932 1202 722 345 196 196 14 24 -912 -1654 -2018 -2834 -3172 -3465 -3746 -3990 -4194 -4410 -4308 -4398 -4572 -4572 -4578 -4362 -4641 -4806 -4640 -4662 -3764 -3779 -4812 -4739 -4790 -5190 -4773 -1727 -2895 -2895 -3707 -3521 -3690 -2833 -3505 -30 -2884 -1381 -1071 -1684 -3015 -3896 -4016 -4285 -4017 -4017 -3987 -3735 -4067 -4069 -3929 -4228 -4038 -4029 -4200 -3944 -4268 -3882 -3182 -3965 -3965 -3322 -3409 -3449 -3838 -3935 -3713 -220 -15 -39 -1711 -3863 -5369 -4785 -5255 -5264 -5264 -5224 -5151 -5149 -5003 -4842 -5146 -5239 -5110 -5128 -5208 -5179 -5230 -5192 -5155 -5138 -5138 -5157 -5184 -5102 -4854 -4833 -4898 -5090 -5153 -5200 -5026 -5089 -3621 -3247 -3640 -4545 -4545 -5076 -5228 -4987 -5209 -5067 -5128 -5061 -5074 -5131 -5148 -5097 -5197 -5180 -4527 -5775 -5775 -5062 -5478 -4908 -4622 -5163 -5443 -5869 -5621 -2810 -2274 -1243 -1878 -1972 -69 -69 -252 -36 20 23 10 2 -2 -37 -47 -22 -31 -34 -26 -28 -35 -35 -40 -63 -76 -83 -80 -49 -49 -97 -594 -363 -270 -288 -189 -658 -1334 -1334 -805 -2831 -2469 -1897 -2281 -873 -2280 -3780 -2934 -3648 -3992 -4094 -4225 -4427 -4495 -4495 -4828 -4851 -4883 -4127 -3294 -3362 -6726 -5997 -972 -1269 -1825 -3337 -594 11 1 1 -23 -36 -35 -32 -21 -10 -3 6 24 39 31 29 42 79 79 142 799 1261 1682
-4451 -4206 -4226 -4022 -4172 -4172 -4174 -4123 -4282 -4214 -4051 -4119 -4085 -3915 -4488 -3572 -3661 -3626 -3493 -3460 -3460 -3325 -3456 -3181 -3329 -3021 -3006 -3173 -3397 -3709 -3575 -3667 -3595 -3537 -4758 -4178 -4178 -3615 -4224 -3842 -3981 -4068 -4066 -3972 -3339 -3901 -3722 -3902 -3922 -4012 -3961 -4009 -4009 -3928 -3904 -4019 -4012 -4109 -4190 -4273 -4194 -4101 -4156 -4024 -4239 -4095 -4146 -3700 -3700 -4021 -4223 -3721 -4082 -4181 -4329 -4293 -4080 -4228 -4363 -5596 -2624 -96 -31 51 51 503 3612 2987 3131 1178 887 676 532 170 168 200 207 180 183 183 218 239 191 148 135 127 142 132 143 140 130 121 112 111 95 95 72 80 81 79 55 67 73 63 72 100 154 156 144 210 162 162 183 245 229 284 390 228 267 246 284 310 487 213 270 432 266 266 273 189 152 173 370 267 373 421 512 437 287 234 194 153 204 204 216 467 435 613 637 483 344 269 224 207 216 318 585 458 458 88 -24 -2659 -3720 -4563 -4584 -4773 -5097 -5257 -5253 -5356 -5465 -5498 -5159 -5598 -5598 -5721 -5603 -5828 -5703 -5483 -5591 -6006 -5514 -5314 -5863 -5210 -5039 -5283 -4547 -5116 -5116 -5259 -4999 -4810 -4409 -4325 -4075 -4219 -3897 -3939 -3488 -3745 -3517 -3650 -3433 -3127 -3127 -3172 -2902 -3059 -3433 -3838 -3003 -3628 -3713 -3968 -4183 -4072 -4653 -4761 -4421 -5279 -5279 -5193 -4951 -4069 -4099 -4382 -4398 -4601 -4132 -4258 -4092 -2996 -4301 -3448 -4353 -4353 -5438 -5377 -5422 -5199 -5106 -5189 -4995 -5028 -4856 -4747 -4643 -4439 -4281 -4162 -4065 -4065 -3839 -3782 -3306 -1953 -1153 -402 -55 87 235 474 477 515 1004 925 860 860 502 827 922 1011 929 832 853 701 567 574 777 814 867 864 659 659 649 714 879 1038 691 670 598 680 775 1127 1475 767 767 1054 952 952 1529 1162 1187 1216 1335 1232 1164 994 941 1272 943 419 460 245 245 72 0 -387 -1374 -2083 -2668 -3146 -3476 -3716 -3927 -4124 -4207 -4304 -4430 -4533 -4533 -4415 -4544 -4531 -4710 -4624 -4239 -2992 -3800 -4437 -4494 -4587 -4397 -4629 -750 -3799 -3799 -4024 -3812 -3921 -3456 -3497 -2289 -2676 -2795 -1602 -1351 -2583 -3519 -3915 -3701 -3905 -3905 -3823 -3923 -4015 -3789 -3844 -4084 -4123 -3912 -4056 -4117 -3425 -3398 -3955 -3167 -3167 -3737 -3350 -3542 -3871 -3538 -2413 -827 -910 -197 -1929 -3298 -4939 -4926 -5217 -5151 -5151 -5373 -5313 -5230 -5290 -5386 -5272 -5206 -5227 -5043 -4933 -5101 -5079 -4769 -4831 -4972 -4972 -5129 -5156 -4850 -4036 -4719 -5127 -5258 -5179 -5094 -5025 -5050 -2952 -3059 -3491 -4563 -4563 -5190 -5292 -5103 -5266 -5147 -4945 -5121 -5117 -5163 -5112 -5196 -5291 -5627 -4917 -5656 -5656 -4764 -5503 -5070 -4855 -5183 -5228 -5632 -5560 -5642 -2989 -2589 -1465 -1809 -1837 -1837 13 56 760 803 260 612 49 -4 -12 -28 -26 14 20 -7 -16 -16 -22 -37 -38 -75 -84 -17 -63 -97 -454 -459 -429 -307 -19 -373 -1496 -1496 -1921 -130 -27 -2725 -1567 -1541 -3100 -4090 -3964 -4082 -4222 -4395 -4372 -4135 -4601 -4601 -3597 -3749 -3614 -2009 -3565 -5286 -4343 -2981 -500 -805 -2045 -121 -35 53 -17 -17 -28 -35 -36 -33 -21 -9 -4 10 23 43 11 52 52 20 20 77 289 699 975
-4468 -4434 -4338 -4417 -4176 -4176 -4066 -3977 -3977 -4083 -3864 -4060 -4256 -4516 -3787 -3081 -3643 -3578 -3460 -3529 -3529 -3052 -3305 -3094 -2906 -3134 -3324 -3371 -3393 -3554 -3636 -3611 -3684 -3737 -4069 -3050 -3050 -3696 -3950 -4245 -4136 -4072 -3883 -4028 -3870 -3609 -3757 -3806 -3800 -3842 -3882 -3913 -3913 -3874 -3917 -4023 -4020 -4108 -4161 -4172 -4103 -4171 -4096 -4000 -4427 -4050 -4057 -4233 -4233 -4314 -4131 -4121 -4250 -4375 -4178 -4079 -4199 -4296 -4385 -4842 -3705 -168 -68 -41 -41 392 1467 2878 3290 1619 472 518 246 125 237 235 429 226 196 196 170 189 188 184 159 177 165 156 167 159 146 129 115 115 97 97 76 60 76 72 57 78 71 94 83 175 137 170 109 163 232 232 200 232 237 286 294 245 311 240 359 460 301 224 260 345 302 302 184 164 202 215 187 306 502 342 297 266 326 389 274 235 201 201 226 273 332 515 776 583 424 565 539 282 762 555 491 385 385 85 -7 -3256 -4211 -4438 -4814 -4984 -5146 -5259 -5303 -5395 -5511 -5522 -4161 -5497 -5497 -5588 -5656 -5487 -5753 -5737 -5531 -5541 -5439 -5381 -5392 -5038 -5175 -5102 -4983 -4697 -4697 -4977 -4588 -4508 -4343 -4081 -4273 -4389 -3936 -4161 -3585 -3512 -3843 -3802 -3611 -2803 -2803 -3517 -3383 -3403 -3437 -3140 -3496 -3475 -3498 -3741 -3935 -4213 -4204 -4653 -4372 -4917 -4917 -4551 -4891 -4050 -4028 -4351 -4265 -4401 -4302 -4274 -4380 -4739 -4867 -5326 -5499 -5499 -5422 -5449 -5496 -5403 -5309 -5161 -5159 -5089 -4965 -4804 -4666 -4516 -4377 -4292 -4129 -4129 -3936 -3935 -3959 -2568 -1703 -959 -169 -26 183 541 543 659 1148 914 779 779 599 620 684 1019 989 981 953 755 731 744 744 808 808 846 854 854 817 948 946 898 725 845 680 615 812 1081 1592 1539 767 1076 1629 1629 993 1083 1159 1252 1359 1251 1135 829 793 1095 784 582 625 84 84 306 84 -325 -1132 -2177 -2709 -3224 -3511 -3815 -3964 -4119 -4245 -4270 -4400 -3101 -3101 -3527 -4318 -3980 -4643 -4679 -4443 -3449 -3230 -4409 -4027 -4545 -4453 -4263 -1568 -4025 -4025 -3942 -3683 -4090 -3737 -3705 -1381 -1482 -2871 -2878 -1611 -1421 -2339 -3174 -3524 -3742 -3742 -3911 -3689 -3623 -3763 -3973 -4203 -3975 -3973 -3587 -4259 -3753 -3806 -3250 -3227 -3227 -2945 -2973 -3884 -4414 -3606 -2401 -657 -1243 -1084 -2842 -3747 -4789 -4970 -5084 -5225 -5225 -5265 -5286 -5069 -5178 -5084 -5128 -5044 -5374 -5198 -5096 -5055 -5015 -4877 -5127 -4697 -4697 -4632 -5009 -4485 -4084 -5342 -5437 -5208 -5182 -5061 -5089 -5111 -3563 -3124 -4397 -5038 -5038 -5316 -5161 -5214 -4990 -4959 -4613 -5233 -5170 -5137 -5189 -5225 -5497 -4970 -4761 -5660 -5660 -5071 -5292 -5294 -5000 -5333 -5505 -5408 -4955 -5951 -5758 -4166 -3377 -2920 -3040 -3040 -2134 -2264 -526 386 810 1732 863 224 1849 1195 738 151 168 70 70 70 6 -5 -3 -42 -117 -399 -633 -424 -491 -553 -494 -32 -1168 -3188 -3706 -3706 -2738 -324 -1133 -3 -1508 -3456 -3475 -3659 -3887 -4097 -4118 -4114 -3646 -4737 -4941 -4941 -4937 -2816 -2666 -4130 -3928 -2822 -1940 -98 -44 -1201 -470 -93 -48 -29 -35 -35 -48 -50 -45 -34 -17 -7 -4 9 6 14 53 45 18 21 21 65 49 44 280
-4406 -4345 -4282 -4344 -4311 -4311 -4304 -4306 -4296 -4248 -3950 -3736 -4176 -3706 -3590 -3828 -3506 -3512 -3323 -3185 -3185 -3364 -3281 -3042 -3135 -3178 -3432 -3380 -3685 -3521 -3806 -3783 -3829 -3734 -4565 -4247 -4247 -4887 -4516 -4475 -4395 -4178 -4217 -4203 -3712 -4008 -3930 -3801 -3919 -3895 -4016 -3819 -3819 -3977 -3980 -4154 -4015 -4104 -4083 -4128 -4114 -4131 -4051 -4093 -4314 -4190 -4045 -4339 -4339 -4026 -4347 -4170 -4382 -4277 -4231 -4196 -4314 -4217 -4304 -4496 -6116 -1617 -232 -110 -110 138 2608 3875 3233 2088 577 1038 754 160 161 234 353 245 211 211 205 235 225 186 184 195 176 184 184 144 142 98 110 82 89 89 94 79 86 82 75 86 94 79 104 97 222 217 132 136 143 143 304 325 290 255 236 250 311 324 291 226 374 423 294 538 244 244 174 150 261 240 200 214 252 524 448 433 393 494 234 434 292 292 203 246 296 503 517 512 531 581 678 535 627 522 516 442 442 91 -14 -1571 -4367 -4547 -4833 -4931 -5120 -5283 -5344 -5404 -5430 -5592 -5457 -5691 -5691 -5621 -5618 -5714 -5686 -5746 -5789 -5556 -5602 -5424 -5541 -5316 -5130 -5553 -4923 -4955 -4955 -4725 -4839 -4492 -4421 -4466 -4115 -4061 -4318 -4361 -3510 -3777 -3913 -2778 -2793 -2563 -2563 -3358 -3447 -3366 -3375 -3670 -4024 -3703 -3372 -3635 -4024 -4210 -4418 -4375 -4296 -4276 -4276 -4712 -4075 -4705 -4593 -4518 -4547 -4386 -3760 -4379 -4518 -4526 -5110 -5355 -5242 -5242 -5431 -4930 -5416 -5440 -5308 -5264 -5225 -5133 -4986 -4863 -4743 -4600 -4474 -4360 -4236 -4236 -4216 -3991 -4017 -2878 -2199 -1443 -981 -106 33 202 445 594 1209 1140 931 931 593 681 744 742 1136 1025 970 859 865 846 797 902 858 919 950 950 939 974 970 770 823 633 683 756 758 1100 1475 1968 1248 769 1650 1650 813 1047 1186 1460 1497 1393 991 1137 1573 1301 884 336 246 64 64 67 17 -2 -1449 -2406 -2974 -3195 -3539 -3765 -3994 -4152 -4172 -4280 -4409 -4305 -4305 -4301 -3518 -2340 -1126 -4570 -4412 -4550 -3916 -4091 -4569 -4332 -4430 -3918 -2334 -3954 -3954 -4064 -3957 -3588 -3859 -3169 -2641 -3539 -1724 -3112 -2804 -1735 -1742 -2416 -3115 -3441 -3441 -3615 -3444 -3397 -3522 -3799 -4066 -3901 -4087 -3170 -4256 -3982 -3216 -4065 -2733 -2733 -2103 -3985 -3931 -3778 -3636 -2332 -415 -1870 -1522 -3458 -3214 -4626 -4892 -5106 -5250 -5250 -5233 -5231 -5243 -5326 -5226 -5351 -4991 -5514 -5507 -5445 -5273 -5320 -5233 -5130 -4977 -4977 -5001 -5272 -5140 -4861 -4999 -5416 -5334 -5302 -4915 -5048 -4761 -3941 -3288 -4685 -5209 -5209 -5377 -5012 -5248 -5055 -5139 -4722 -5245 -5196 -4921 -5200 -5326 -5412 -4603 -4962 -5412 -5412 -4826 -5549 -5266 -5333 -5588 -5381 -5466 -5263 -5516 -5890 -6243 -6456 -5060 -4304 -4304 -2784 -2488 -2903 -2474 -1721 -305 51 -21 -19 11 114 99 716 885 144 144 210 4 12 36 -663 -963 -1317 -1298 -1120 -34 -1212 -2066 -3047 -4702 -4979 -4979 -5005 -5038 -4889 -3028 -325 -2648 -3601 -3028 -3925 -3952 -3630 -2281 1069 -71 -1892 -1892 -2920 -1785 -4168 -2073 -86 -649 -229 37 -545 -628 -430 -30 -113 -73 -83 -83 -79 -77 -50 -41 -16 -5 6 5 4 27 20 40 36 29 29 25 56 27 25
-4304 -4461 -4273 -4566 -4285 -4285 -4311 -4171 -4026 -4409 -4618 -2856 -3628 -3657 -3762 -3577 -3427 -3229 -3296 -3516 -3516 -3210 -3149 -3146 -3097 -3276 -3490 -3396 -3515 -3576 -3404 -3798 -3714 -3897 -4253 -4108 -4108 -4154 -3945 -4397 -4309 -4019 -3998 -4355 -3964 -4318 -3702 -3411 -3864 -3940 -3940 -4028 -4028 -4003 -4075 -4215 -4082 -4180 -4151 -4184 -4144 -4179 -4095 -4051 -4217 -4179 -4251 -4057 -4057 -4324 -4322 -4254 -4385 -4349 -4297 -4307 -4207 -4350 -4282 -4721 -5339 -2431 -512 -153 -153 -62 517 4037 4140 3622 2126 1085 632 264 170 167 230 219 200 200 254 249 259 190 209 215 188 190 196 177 111 141 129 121 107 107 100 97 88 67 70 91 92 160 145 147 97 160 207 254 138 138 297 510 492 337 333 284 312 286 306 255 407 454 297 390 202 202 183 151 308 250 256 267 431 347 309 574 501 566 247 480 350 350 276 422 376 619 507 383 396 529 456 509 575 893 632 537 537 236 -31 -1315 -3795 -4863 -4946 -4938 -5050 -5345 -5229 -5489 -5444 -3472 -5422 -5530 -5530 -5562 -5163 -5540 -5614 -5790 -5422 -5687 -5556 -6046 -5711 -5890 -5734 -5884 -5953 -5422 -5422 -5244 -4737 -4323 -4138 -4002 -4068 -3845 -3340 -3551 -3799 -3527 -3287 -3337 -2297 -2302 -2302 -2806 -2971 -3312 -3362 -3704 -3981 -3742 -2809 -3904 -3530 -4085 -4362 -4535 -4814 -4697 -4697 -4528 -4184 -4640 -4716 -4309 -5087 -4340 -4314 -4939 -4896 -4280 -5383 -2934 -5795 -5795 -5324 -5426 -5705 -5731 -5441 -5347 -5315 -5189 -5066 -4972 -4860 -4690 -4595 -4510 -4385 -4385 -4231 -4189 -3806 -2922 -2496 -2138 -1713 -421 -16 321 510 658 824 1206 1023 1023 751 796 731 880 1125 1110 1029 965 770 893 868 899 882 1050 1066 1066 984 1048 1057 744 678 563 797 1384 1023 1076 1339 988 1129 767 1793 1793 1716 811 1077 1314 1506 1070 1068 1805 1954 276 276 259 249 166 166 403 10 -702 -1626 -2573 -2940 -3177 -3462 -3718 -3972 -3931 -4052 -4145 -4212 -4239 -4239 -2158 -1924 -3032 -4628 -4524 -4783 -4741 -4177 -4093 -3916 -4587 -4340 -4357 -5135 -3623 -3623 -4067 -4063 -3728 -4016 -3681 -3192 -3674 -3591 -3126 -2894 -2298 -1261 -1140 -1959 -2413 -2413 -2980 -3192 -3203 -3418 -3973 -3977 -4045 -4038 -3910 -4096 -3626 -4174 -3269 -2731 -2731 -4370 -3708 -3993 -3691 -2609 -36 -1849 -1972 -2403 -3174 -4156 -4701 -4721 -5092 -4900 -4900 -5279 -5265 -5221 -5387 -5442 -5463 -5184 -5485 -5144 -5283 -5220 -5273 -5196 -5020 -5010 -5010 -5052 -4946 -4802 -4882 -5291 -5158 -5348 -5049 -5106 -5153 -5015 -3276 -3176 -5011 -5497 -5497 -5204 -5109 -5404 -5343 -5361 -4978 -5429 -4959 -4951 -5155 -5308 -5575 -5210 -4924 -4899 -4899 -4839 -5456 -5277 -5517 -5658 -5560 -5524 -5487 -5348 -5288 -5565 -5766 -6102 -6708 -6708 -5655 -3587 -2218 -2974 -3380 -3313 -3106 -1909 -943 -539 -354 -139 -2 369 155 155 538 11 118 267 705 1119 -1257 7 -208 -406 112 -484 -453 -1774 -603 -603 -329 -1007 -1653 -784 -825 -19 123 358 297 809 -2018 -3718 -2910 -1373 -2002 -2002 -1688 -20 -1018 -912 -885 -395 -60 -880 -879 -699 -332 -79 -126 -158 -116 -116 -92 -39 -50 -37 -20 3 4 7 -2 -1 6 14 30 23 23 7 9 13 -5
-4469 -4321 -4317 -4198 -3889 -3889 -3924 -4378 -3978 -3832 -3641 -3852 -3556 -3451 -3377 -3303 -3271 -3185 -3150 -3270 -3270 -3098 -2920 -3148 -3187 -3203 -3128 -3582 -3614 -3701 -3510 -3938 -4123 -3662 -4182 -4348 -4348 -4593 -4213 -4005 -4314 -4255 -4142 -4207 -4165 -4096 -3992 -3263 -3493 -3842 -3941 -3860 -3860 -3764 -4126 -4080 -4146 -3934 -4099 -4119 -4109 -4171 -4171 -4145 -4300 -3815 -4411 -4292 -4292 -4293 -4340 -4434 -4406 -4387 -4505 -4260 -4301 -4300 -4400 -4939 -5018 -4744 -1470 -116 -116 -85 14 1705 4228 2377 2724 533 863 223 191 175 216 280 255 255 288 271 254 234 214 224 206 189 177 163 125 154 135 130 112 112 111 105 84 101 99 89 126 142 127 148 120 190 152 307 234 234 189 238 354 451 628 481 336 325 299 279 272 375 336 247 240 240 188 226 393 263 321 343 453 503 370 475 532 432 481 566 510 510 310 374 523 442 508 381 340 332 352 427 569 902 652 271 271 72 -572 -2193 -3870 -4455 -4820 -4987 -5059 -4559 -5211 -5356 -5434 -5511 -5588 -5580 -5580 -5657 -5779 -5814 -5686 -5253 -5110 -5285 -5662 -5214 -5115 -5605 -5248 -4902 -4359 -4679 -4679 -4806 -4680 -4079 -4483 -4199 -3825 -3699 -3821 -3952 -3540 -3244 -3473 -2938 -2492 -2501 -2501 -2918 -3168 -3232 -3839 -3781 -4019 -3764 -3797 -4017 -3859 -4142 -4087 -4470 -4451 -4401 -4401 -4392 -4360 -4638 -4482 -4569 -4797 -4271 -4570 -5069 -5119 -5521 -4936 -5783 -5637 -5637 -5552 -5620 -5872 -5703 -5585 -5353 -5279 -5235 -5115 -4992 -4860 -4736 -4650 -4567 -4494 -4494 -4351 -4226 -4023 -3816 -2563 -2323 -1724 -754 -8 73 362 806 989 1189 1200 1200 687 709 806 886 1082 1159 1084 999 910 975 1038 1046 1085 1053 1110 1110 1097 1115 920 919 567 693 1562 1250 1025 921 1279 933 1226 1517 1282 1282 1688 1570 1355 1298 1140 1081 1337 1274 678 269 498 298 458 350 350 202 31 -1640 -2208 -2686 -2904 -3249 -3415 -3665 -3744 -3869 -3979 -4039 -4183 -4161 -4161 -4302 -3121 -645 -4458 -4496 -4129 -4062 -4015 -3866 -2644 -2588 -519 -4133 -4208 -2926 -2926 -3563 -4048 -4022 -3954 -3450 -3469 -3846 -3486 -3462 -2130 -2541 -1334 -540 -46 -1246 -1246 -2347 -2568 -2691 -3277 -3657 -3990 -3529 -4010 -3756 -3914 -3684 -3408 -3235 -5250 -5250 -3649 -3187 -3363 -2830 -1106 -2036 -2449 -2599 -2910 -3165 -4726 -4603 -4828 -4907 -5117 -5117 -5206 -5294 -5401 -5455 -5426 -5315 -5063 -5253 -5173 -5247 -5224 -5024 -4600 -4534 -5061 -5061 -5042 -4713 -4675 -4740 -5750 -5262 -5022 -5084 -4986 -4888 -4927 -2814 -4090 -4947 -5526 -5526 -5076 -4630 -5421 -4912 -5377 -5356 -5577 -4453 -5841 -4701 -5001 -5359 -5408 -4965 -5244 -5244 -5076 -5471 -5463 -5669 -5630 -5485 -5362 -5416 -5303 -5177 -5483 -5451 -5593 -5861 -5861 -6512 -5172 -3128 -2546 -1943 -2430 -3536 -3564 -3504 -2955 -2037 -1175 -1168 -1029 -931 -931 -1340 -1571 -1018 -142 -504 -8 -190 90 -16 414 68 225 -28 -392 -78 -78 1023 709 631 866 -38 -3061 -3305 -3265 -3073 -3282 109 635 490 -12 -1021 -1021 -1956 -1921 -2056 -1431 -2343 -1442 -1123 -578 -70 -320 -315 -181 -135 -138 -118 -118 -75 -68 -21 -58 -37 -16 -11 -9 -8 -8 -3 15 23 21 21 48 50 20 -11
-4530 -4482 -4309 -4065 -4454 -4454 -3962 -4079 -3590 -3597 -3690 -3541 -3596 -3462 -3218 -3202 -3138 -3059 -3005 -3053 -3053 -3178 -3197 -3422 -3369 -3338 -3370 -3463 -3717 -3710 -3894 -4055 -3978 -5150 -4616 -4456 -4456 -4213 -4366 -4412 -4442 -4254 -4202 -4020 -4151 -4151 -3769 -3547 -3698 -3697 -3710 -3403 -3403 -4148 -3995 -3957 -3838 -4099 -3879 -4162 -4087 -4153 -4226 -4236 -4150 -4296 -4292 -4238 -4238 -4279 -4456 -4344 -4401 -4281 -4392 -4432 -4643 -4442 -4349 -5057 -4878 -6178 -3315 -639 -639 -140 -90 394 3543 4372 3915 1520 1796 278 533 168 211 281 264 264 306 314 309 263 242 220 195 172 183 174 174 153 150 145 263 263 109 149 107 111 132 161 130 161 137 118 171 287 229 259 376 376 310 226 188 327 528 599 367 322 324 318 280 310 368 426 195 195 173 230 429 294 255 304 492 383 368 425 595 440 432 492 438 438 489 518 433 407 374 427 400 509 273 364 318 575 343 118 118 -16 -1423 -4095 -4460 -4639 -4879 -5095 -4413 -5033 -5282 -5355 -5350 -5458 -5480 -5542 -5542 -5619 -5469 -5590 -5577 -5569 -5725 -5572 -5279 -5291 -5603 -5213 -5173 -4973 -4419 -4647 -4647 -3412 -4518 -4103 -4008 -4126 -3802 -3318 -4611 -4147 -3882 -3452 -2609 -3178 -2606 -2511 -2511 -3076 -3065 -3359 -3537 -3648 -3835 -3716 -3811 -3995 -3775 -3912 -3863 -4286 -4510 -4431 -4431 -4160 -4775 -4571 -4555 -4186 -4364 -5533 -4925 -4659 -5504 -5106 -4675 -4638 -5764 -5764 -5711 -5784 -5685 -5697 -5561 -5427 -5343 -5276 -5144 -5037 -4926 -4843 -4685 -4592 -4560 -4560 -4416 -4283 -4208 -3233 -2583 -2061 -1476 -139 81 40 116 525 713 997 1138 1138 1213 778 755 913 1043 1161 1112 1042 960 1046 1069 1082 977 1093 982 982 1082 1043 801 655 828 1057 955 1711 978 921 1016 1249 1278 1243 1575 1575 1474 1284 1458 1871 1369 2538 1892 1559 378 962 622 344 392 294 294 297 280 -815 -2646 -3201 -3121 -2943 -3225 -3497 -3670 -3801 -3867 -3929 -4026 -4117 -4117 -3290 -4242 -4367 -3733 -4451 -4390 -4797 -4211 -2416 -1105 -2335 -2641 -4094 -4424 -4675 -4675 -2973 -3794 -3948 -3969 -3482 -3483 -3920 -4057 -3818 -3385 -2596 -2240 -887 -20 -931 -931 -2135 -2155 -2556 -3074 -3524 -3880 -4063 -3700 -4030 -3689 -4127 -3488 -2333 -3294 -3294 -3529 -4290 -3760 -3193 -2471 -2177 -1909 -2806 -3172 -4077 -4888 -4894 -5076 -5149 -5194 -5194 -5212 -5481 -5495 -5315 -5445 -5339 -5106 -5266 -5244 -5399 -5315 -5222 -5046 -5014 -5322 -5322 -4773 -4753 -4490 -4377 -4962 -5389 -5114 -4863 -4861 -4978 -4530 -2796 -4457 -5205 -5538 -5538 -4855 -4717 -5508 -5543 -5425 -5262 -5024 -5599 -5089 -4369 -5108 -5558 -5415 -4512 -5130 -5130 -5232 -5670 -5631 -5615 -5300 -5715 -5353 -5498 -5544 -5377 -5603 -5437 -5571 -5259 -5259 -5483 -5884 -7058 -5333 -4053 -3028 -2709 -2256 -1822 -3606 -3139 -3210 -3520 -3598 -2759 -2759 -2695 -2675 -2322 -3763 -3735 -3100 -2489 -2465 -2389 -1207 -1888 -1596 -1554 -591 -465 -465 -853 -1691 -2435 -2920 -3451 -3315 -3251 -2819 100 441 390 -389 -1803 -1900 -2603 -2603 -1894 -1529 -1003 -811 -560 -580 -349 -254 -193 -221 -183 -159 -129 -117 -122 -122 -64 -51 -38 -54 -50 -29 -21 -17 -15 -11 -8 -4 -1 -1 -1 0 4 -7 -26
-4235 -4293 -4092 -4490 -3871 -3871 -3797 -4350 -3576 -3782 -3681 -3494 -3402 -3326 -3408 -3271 -3187 -3187 -3032 -3039 -3039 -3141 -3259 -3150 -3467 -2634 -3591 -3676 -3414 -3983 -3667 -3855 -4228 -4264 -4713 -4507 -4507 -4333 -4540 -4172 -4300 -4198 -4297 -4176 -3876 -4030 -4134 -4085 -3947 -3684 -3721 -3668 -3668 -3350 -3637 -3811 -3806 -4165 -4001 -3652 -4104 -4171 -4223 -4292 -4370 -4428 -4358 -4263 -4263 -4284 -4482 -4352 -4411 -4398 -4614 -4547 -4541 -4248 -4194 -4552 -4790 -5148 -5631 -1452 -1452 -212 -149 37 4274 4805 3506 3326 2111 282 461 229 229 380 306 306 412 311 309 254 261 244 211 195 193 182 157 169 165 130 113 113 142 130 187 136 157 162 157 152 154 179 196 148 292 235 257 257 266 306 276 274 284 355 350 301 362 406 261 398 286 206 179 179 209 246 307 414 273 318 547 383 440 409 377 641 481 444 455 455 399 385 415 467 436 460 452 650 362 193 64 273 156 -11 -11 -2429 -3406 -2477 -4722 -4797 -4960 -4962 -5061 -5212 -4913 -4970 -4859 -5291 -5148 -5448 -5448 -5686 -5559 -5633 -5727 -5774 -5230 -5688 -4881 -5497 -5331 -5049 -5257 -4496 -4858 -4559 -4559 -4608 -4504 -4541 -3873 -3986 -3974 -3973 -3583 -3726 -3719 -3637 -3307 -3067 -3111 -2159 -2159 -866 -2668 -3043 -3238 -3434 -3840 -3703 -3725 -3832 -3897 -4450 -4370 -3671 -4246 -3899 -3899 -4594 -4866 -4585 -4211 -3929 -4980 -5492 -4769 -4942 -4117 -5299 -4454 -5607 -5718 -5718 -5681 -5700 -5673 -5635 -5683 -5384 -5391 -5312 -5197 -5137 -5056 -4918 -4450 -4380 -4782 -4782 -4545 -4497 -4119 -3843 -2571 -2086 -1824 -431 58 238 56 330 845 995 1062 1062 1149 1188 800 929 954 1207 1144 1117 1049 1069 1074 1062 937 949 973 973 966 843 913 847 1661 965 873 1696 951 945 1246 1288 1523 1534 1484 1484 1269 1222 1317 1258 813 476 1973 1442 667 708 574 477 702 367 367 327 259 -18 -1629 -2813 -2837 -2575 -3142 -3147 -3459 -3661 -3704 -3779 -3836 -3993 -3993 -4031 -4072 -4209 -2726 -4383 -4322 -4500 -3576 -1792 -2632 -141 -3907 -4187 -4254 -4719 -4719 -4502 -4155 -4012 -3680 -3636 -3277 -3887 -3889 -4071 -3483 -2883 -2302 -124 -1135 -1198 -1198 -45 -20 -2240 -2398 -3187 -3832 -4125 -4357 -3254 -3858 -4093 -3390 -3210 -3602 -3602 -4229 -3619 -3968 -2735 -3321 -2840 -2810 -2662 -3332 -4102 -4860 -5188 -5033 -5215 -5215 -5215 -5281 -5314 -5172 -5408 -5353 -5411 -5190 -5322 -5403 -5392 -5238 -4728 -4842 -5186 -5047 -5047 -5224 -5164 -4931 -5519 -5247 -5211 -4667 -4888 -4970 -5250 -4597 -3360 -4403 -5265 -5880 -5880 -4854 -4825 -5301 -5346 -4815 -5194 -5319 -5141 -5580 -5058 -5057 -5422 -5283 -5010 -5340 -5340 -5191 -5588 -5460 -5081 -5164 -5231 -5293 -5538 -5580 -5558 -5612 -5669 -5508 -4781 -4781 -4773 -5033 -5695 -6181 -6506 -6721 -3834 -3588 -3108 -2116 -2529 -2448 -3172 -1387 -3359 -3359 -2559 -2479 -3551 -3913 -4379 -4272 -4384 -4295 -3771 -3096 -3941 -2410 -1124 -16 669 669 70 -309 -1697 -2567 -3083 -3086 -2390 66 890 245 -1397 -1997 -2398 -1448 -621 -621 -308 -85 -74 -79 -310 -303 -241 -114 -116 -227 -134 -90 -106 -86 -81 -81 -76 -54 -54 -54 -57 -46 -29 -27 -24 -20 -15 -12 -8 -7 -7 -7 -6 -10 -6
-4295 -4198 -3956 -3901 -3902 -3902 -3950 -3888 -3905 -3811 -3520 -3424 -3500 -3462 -3310 -3217 -3405 -3025 -2936 -3102 -3102 -3207 -3108 -3247 -3479 -3624 -3419 -3380 -3999 -4006 -3644 -4537 -4508 -4376 -4327 -4223 -4223 -4567 -4390 -4142 -4396 -4282 -4392 -4275 -4264 -4048 -4055 -3921 -3987 -3728 -3592 -3636 -3636 -3799 -3630 -3829 -3912 -4117 -3975 -4202 -4268 -4096 -4155 -4190 -4338 -4423 -4345 -4462 -4462 -4345 -4350 -4112 -4384 -4463 -4509 -4272 -4426 -4363 -4540 -4605 -4393 -4515 -5523 -3718 -3718 -1686 -152 -114 2077 4718 4343 2616 2530 403 333 1844 311 383 350 350 377 363 341 313 270 275 251 225 217 201 152 172 161 159 118 118 175 175 156 140 170 138 207 230 196 218 300 302 249 242 301 301 427 244 331 248 260 326 353 352 306 293 290 278 239 193 174 174 178 255 386 294 326 304 428 660 795 632 382 436 591 569 432 432 396 426 830 506 1006 405 527 693 297 300 210 7 2 -1889 -1889 -3301 -4210 -4515 -4718 -4791 -4915 -5161 -5105 -5156 -5338 -5341 -5449 -5038 -5222 -5517 -5517 -5721 -5566 -5660 -5703 -5461 -5438 -5439 -5216 -5562 -5319 -4891 -5530 -5264 -5153 -5348 -5348 -4814 -4348 -4363 -3919 -3849 -4093 -3996 -3659 -4147 -3810 -3619 -3208 -2698 -2715 -2658 -2658 -2675 -3062 -3253 -3294 -3185 -3815 -3667 -4068 -3861 -4130 -4445 -4905 -4520 -3982 -4279 -4279 -4914 -5090 -4722 -4543 -4709 -4812 -5084 -5021 -5233 -5547 -5520 -5433 -5679 -5758 -5758 -5665 -5646 -5622 -5562 -5409 -5343 -5432 -5414 -5276 -5174 -5072 -5000 -4915 -4666 -4720 -4720 -4705 -4285 -4007 -3633 -2617 -1922 -1906 -1184 -75 46 96 1035 1184 1170 1102 1102 1073 1083 1183 1222 1197 1255 1269 1128 1130 1087 1076 966 1029 974 1122 1122 1151 922 1090 1632 1554 1005 884 1670 1010 1043 1320 1438 1298 1399 1363 1363 1220 1251 1009 1511 1231 476 1226 762 895 784 631 796 686 346 346 553 392 177 8 -973 -2767 -2231 -2739 -3205 -3368 -3515 -3578 -3660 -3797 -3798 -3798 -3919 -4195 -4115 -4053 -4519 -4769 -4626 -2366 -2709 -1573 -2162 -4177 -4584 -4653 -4826 -4826 -4851 -4230 -4291 -4136 -3883 -3682 -4188 -4007 -4203 -3611 -2996 -2730 -2470 -593 -62 -62 -261 -218 -74 -2289 -3412 -3627 -3918 -4259 -3683 -3913 -4089 -2532 -3506 -3045 -3045 -4322 -3978 -3825 -3723 -3646 -3082 -2897 -3207 -3863 -4273 -4586 -5165 -5065 -5316 -5377 -5377 -5370 -5459 -5450 -5322 -5345 -5361 -5477 -5427 -5124 -5568 -5166 -4964 -5570 -4599 -4946 -4946 -5226 -5129 -5130 -5103 -4511 -4709 -5028 -4908 -4975 -5277 -4363 -3985 -4266 -5206 -5664 -5664 -4629 -4831 -5227 -4891 -5121 -5380 -5612 -5725 -4976 -4769 -4652 -5059 -5367 -5143 -5207 -5207 -4840 -5496 -5612 -5428 -5284 -5210 -5564 -5590 -5487 -5548 -5556 -5744 -4916 -4443 -4443 -4993 -3567 -5637 -5863 -6287 -6288 -6434 -6488 -6501 -7164 -7039 -4955 -4060 -3737 -3407 -3407 -3289 -1196 -2440 -2643 -2272 -4038 -4307 -4408 -4365 -4507 -4172 -4206 -2883 -2977 -1192 -1192 -10 -98 -1276 -773 -1711 -2233 -94 254 -237 -2430 -1632 -1050 -747 -65 -107 -107 -8 -80 -34 -93 -156 -132 -99 -81 -81 -107 -43 -81 -52 -41 -51 -51 -56 -48 -65 -62 -42 -59 -48 -39 -34 -28 -24 -18 -12 -11 -11 -4 -6 -6 -5
-4113 -4192 -4024 -3918 -3775 -3775 -3647 -3843 -3684 -3501 -3692 -3257 -3404 -3271 -3275 -3128 -3090 -3095 -3029 -3239 -3239 -2804 -3328 -3507 -3371 -3511 -3781 -3715 -3753 -3889 -3980 -3932 -4239 -3657 -4245 -4316 -4316 -4267 -4335 -4460 -4125 -4174 -4190 -4072 -4120 -3981 -3929 -3869 -3812 -3665 -3688 -2671 -2671 -3767 -3664 -3709 -3912 -3870 -4022 -4043 -3928 -4221 -4239 -4120 -4215 -4185 -4445 -4341 -4341 -4306 -4265 -4269 -4488 -4512 -4449 -4588 -4644 -4451 -4459 -4403 -3976 -4554 -4792 -6391 -6391 -2868 -1306 -292 75 2435 4628 4300 3287 1468 815 1125 245 287 398 398 449 345 436 306 291 331 262 237 203 184 181 178 155 136 165 165 154 231 309 214 205 235 174 212 202 234 339 318 306 268 369 369 352 342 288 316 337 366 348 360 324 308 285 193 251 179 178 178 181 228 444 391 306 382 480 618 760 613 597 521 540 549 438 438 428 467 720 637 429 332 285 498 242 259 67 -12 -1263 -2862 -2862 -3830 -4227 -4474 -4619 -4151 -4932 -5052 -5155 -5205 -5250 -5319 -5388 -5407 -5214 -5341 -5341 -5505 -5348 -5520 -5539 -5401 -5439 -5515 -5556 -4859 -5585 -5326 -5476 -5235 -4776 -4398 -4398 -4564 -3915 -4256 -3733 -4018 -4253 -4157 -3956 -3797 -3586 -3503 -3553 -3118 -2909 -1848 -1848 -2760 -2831 -3150 -3409 -3703 -3584 -4343 -4368 -3929 -4148 -4432 -4068 -4110 -4672 -4408 -4408 -4715 -4866 -4772 -4678 -5119 -5215 -5073 -5218 -5530 -5422 -5484 -5683 -5648 -5648 -5648 -5593 -5627 -5612 -5607 -5528 -5518 -5495 -5478 -5352 -5240 -5132 -5034 -4898 -4877 -4784 -4784 -4492 -4514 -4230 -4128 -3522 -2335 -1601 -1272 -411 17 285 1127 1287 1489 1558 1558 1075 1101 1098 1243 1123 1291 1334 1235 1171 1067 1058 1067 1084 1103 1122 1122 1204 1199 1460 1277 1512 1150 1098 1133 1081 1157 1251 1168 1193 1213 1234 1234 1365 1203 766 1014 1962 476 1195 1081 1188 875 810 605 497 423 423 393 598 259 131 -506 -2325 -2047 -2617 -3181 -3384 -3339 -3401 -3490 -3528 -3670 -3670 -3831 -3589 -4042 -4009 -4181 -4022 -4147 -3947 -2589 -3662 -4213 -4213 -4397 -4429 -4656 -4656 -4764 -4775 -4424 -4097 -3745 -4237 -4204 -4166 -3701 -3830 -3580 -3119 -2694 -32 -111 -111 -122 -293 -36 -1849 -3038 -3629 -3512 -4192 -3925 -3749 -2228 -2994 -3085 -3630 -3630 -3471 -3559 -3687 -4128 -3447 -3150 -3186 -3802 -4272 -3087 -4985 -5083 -5057 -5154 -5263 -5263 -5327 -5274 -5471 -5412 -5337 -5386 -5225 -5267 -5253 -5374 -5191 -4953 -5100 -4778 -5120 -5120 -5216 -4846 -4705 -4663 -4864 -4569 -4964 -4853 -5345 -4589 -4020 -2788 -3443 -5164 -6034 -6034 -4644 -5486 -4982 -5054 -5170 -5304 -5442 -5045 -5155 -4704 -5165 -5042 -5034 -5195 -4965 -4965 -4470 -5291 -4669 -3631 -4776 -5165 -5242 -5364 -3202 -5492 -5623 -5903 -4221 -2263 -2263 -4322 -4597 -5815 -5728 -5543 -5756 -5347 -4602 -2061 -5711 -5439 -5212 -5361 -5155 -4823 -4823 -5536 -5531 -5207 -4085 -3156 -3377 -3116 -3548 -3040 -3249 -3234 -3191 -3632 -3698 -2189 -2189 -1491 -1346 -212 -764 -1025 -60 -40 -1843 -1951 -1045 -712 -45 -55 -68 -58 -58 -56 -115 -46 -23 -94 -72 -65 -63 -65 -45 -42 -42 -62 -62 -60 -60 -58 -50 -47 -35 -42 -58 -59 -44 -39 -38 -31 -23 -16 -11 -11 -6 -6 -5 -5
-4113 -4192 -4024 -3918 -3775 -3775 -3647 -3843 -3684 -3501 -3692 -3257 -3404 -3271 -3275 -3128 -3090 -3095 -3029 -3239 -3239 -2804 -3328 -3507 -3371 -3511 -3781 -3715 -3753 -3889 -3980 -3932 -4239 -3657 -4245 -4316 -4316 -4267 -4335 -4460 -4125 -4174 -4190 -4072 -4120 -3981 -3929 -3869 -3812 -3665 -3688 -2671 -2671 -3767 -3664 -3709 -3912 -3870 -4022 -4043 -3928 -4221 -4239 -4120 -4215 -4185 -4445 -4341 -4341 -4306 -4265 -4269 -4488 -4512 -4449 -4588 -4644 -4451 -4459 -4403 -3976 -4554 -4792 -6391 -6391 -2868 -1306 -292 75 2435 4628 4300 3287 1468 815 1125 245 287 398 398 449 345 436 306 291 331 262 237 203 184 181 178 155 136 165 165 154 231 309 214 205 235 174 212 202 234 339 318 306 268 369 369 352 342 288 316 337 366 348 360 324 308 285 193 251 179 178 178 181 228 444 391 306 382 480 618 760 613 597 521 540 549 438 438 428 467 720 637 429 332 285 498 242 259 67 -12 -1263 -2862 -2862 -3830 -4227 -4474 -4619 -4151 -4932 -5052 -5155 -5205 -5250 -5319 -5388 -5407 -5214 -5341 -5341 -5505 -5348 -5520 -5539 -5401 -5439 -5515 -5556 -4859 -5585 -5326 -5476 -5235 -4776 -4398 -4398 -4564 -3915 -4256 -3733 -4018 -4253 -4157 -3956 -3797 -3586 -3503 -3553 -3118 -2909 -1848 -1848 -2760 -2831 -3150 -3409 -3703 -3584 -4343 -4368 -3929 -4148 -4432 -4068 -4110 -4672 -4408 -4408 -4715 -4866 -4772 -4678 -5119 -5215 -5073 -5218 -5530 -5422 -5484 -5683 -5648 -5648 -5648 -5593 -5627 -5612 -5607 -5528 -5518 -5495 -5478 -5352 -5240 -5132 -5034 -4898 -4877 -4784 -4784 -4492 -4514 -4230 -4128 -3522 -2335 -1601 -1272 -411 17 285 1127 1287 1489 1558 1558 1075 1101 1098 1243 1123 1291 1334 1235 1171 1067 1058 1067 1084 1103 1122 1122 1204 1199 1460 1277 1512 1150 1098 1133 1081 1157 1251 1168 1193 1213 1234 1234 1365 1203 766 1014 1962 476 1195 1081 1188 875 810 605 497 423 423 393 598 259 131 -506 -2325 -2047 -2617 -3181 -3384 -3339 -3401 -3490 -3528 -3670 -3670 -3831 -3589 -4042 -4009 -4181 -4022 -4147 -3947 -2589 -3662 -4213 -4213 -4397 -4429 -4656 -4656 -4764 -4775 -4424 -4097 -3745 -4237 -4204 -4166 -3701 -3830 -3580 -3119 -2694 -32 -111 -111 -122 -293 -36 -1849 -3038 -3629 -3512 -4192 -3925 -3749 -2228 -2994 -3085 -3630 -3630 -3471 -3559 -3687 -4128 -3447 -3150 -3186 -3802 -4272 -3087 -4985 -5083 -5057 -5154 -5263 -5263 -5327 -5274 -5471 -5412 -5337 -5386 -5225 -5267 -5253 -5374 -5191 -4953 -5100 -4778 -5120 -5120 -5216 -4846 -4705 -4663 -4864 -4569 -4964 -4853 -5345 -4589 -4020 -2788 -3443 -5164 -6034 -6034 -4644 -5486 -4982 -5054 -5170 -5304 -5442 -5045 -5155 -4704 -5165 -5042 -5034 -5195 -4965 -4965 -4470 -5291 -4669 -3631 -4776 -5165 -5242 -5364 -3202 -5492 -5623 -5903 -4221 -2263 -2263 -4322 -4597 -5815 -5728 -5543 -5756 -5347 -4602 -2061 -5711 -5439 -5212 -5361 -5155 -4823 -4823 -5536 -5531 -5207 -4085 -3156 -3377 -3116 -3548 -3040 -3249 -3234 -3191 -3632 -3698 -2189 -2189 -1491 -1346 -212 -764 -1025 -60 -40 -1843 -1951 -1045 -712 -45 -55 -68 -58 -58 -56 -115 -46 -23 -94 -72 -65 -63 -65 -45 -42 -42 -62 -62 -60 -60 -58 -50 -47 -35 -42 -58 -59 -44 -39 -38 -31 -23 -16 -11 -11 -6 -6 -5 -5
-4076 -3885 -3768 -3706 -3257 -3257 -3558 -3558 -3729 -3487 -3341 -3457 -3452 -2865 -3355 -3160 -3075 -3067 -2912 -3198 -3198 -3333 -3343 -3535 -3359 -3584 -3462 -3730 -3968 -3889 -3831 -3487 -4306 -4174 -4215 -4566 -4566 -4487 -4595 -4165 -4336 -4325 -3869 -4044 -3831 -3989 -3822 -3836 -3565 -3501 -3858 -3703 -3703 -3307 -3841 -3837 -3736 -4028 -4206 -4289 -4125 -4123 -4174 -4230 -4234 -4210 -4334 -4113 -4113 -4195 -4508 -4484 -4462 -4329 -4640 -4725 -4587 -4510 -4572 -4182 -4357 -4767 -4783 -5327 -5327 -4097 -2206 -483 -81 625 2661 4175 4174 2377 1085 397 943 371 378 378 548 499 425 399 362 329 292 250 212 210 193 160 139 134 160 160 146 192 305 232 274 194 234 210 412 402 410 282 385 271 249 249 291 317 411 347 337 305 331 306 274 336 317 242 200 206 186 186 192 243 250 256 519 616 738 745 736 721 535 437 418 414 819 819 828 811 973 917 423 354 325 458 182 128 6 -2087 -3125 -3471 -3471 -3965 -4308 -4695 -4667 -4714 -4914 -5016 -5180 -5260 -5284 -5400 -5424 -5477 -5493 -5527 -5527 -5506 -5386 -5577 -5677 -5961 -5368 -5462 -5297 -5277 -5444 -5142 -5122 -5171 -5188 -4818 -4818 -4943 -4682 -4530 -4468 -4394 -3924 -4184 -4231 -3713 -3690 -3398 -3150 -3211 -2943 -2364 -2364 -2505 -3276 -3593 -3444 -3747 -4627 -4220 -3960 -4431 -4274 -4360 -4320 -3964 -4824 -4524 -4524 -4737 -2707 -4629 -5288 -4971 -5081 -5147 -4793 -4780 -3773 -5476 -5572 -5625 -5571 -5571 -5598 -5571 -5574 -5558 -5548 -5568 -5536 -5545 -5414 -5314 -5181 -5061 -4937 -4779 -4730 -4730 -4491 -4280 -4069 -4084 -3844 -3381 -2449 -1539 -949 -17 1018 1369 1295 1840 1738 1738 1471 1404 1124 1348 1261 1365 1313 1224 1168 1108 1091 1106 1134 1171 1182 1182 1339 1402 1464 1427 1555 1191 1300 1226 1157 1180 1213 1163 1170 1200 1363 1363 1470 1029 712 956 1348 476 476 851 659 714 554 576 411 216 216 129 258 286 58 -173 -2708 -2079 -2669 -3148 -1832 -3174 -3304 -3489 -3425 -3548 -3548 -3618 -3767 -2145 -3940 -3847 -3200 -3672 -2831 -3082 -4083 -4611 -4456 -4779 -4846 -4896 -4896 -4808 -4525 -4256 -4313 -3934 -4576 -3587 -4097 -4392 -3955 -3651 -3166 -3066 -3668 -44 -44 -150 -157 -609 -2272 -3042 -3178 -3269 -3800 -3725 -3183 -3370 -3425 -3174 -3540 -3540 -3569 -3515 -4079 -3657 -3081 -3119 -3333 -3554 -4123 -4536 -4785 -5070 -4934 -5062 -5310 -5310 -5224 -5272 -5479 -5429 -5109 -5348 -5210 -5389 -5288 -5280 -4875 -5102 -5029 -4854 -5122 -5122 -4964 -4642 -3858 -4759 -5365 -5093 -5192 -4628 -4730 -5340 -3866 -1562 -3444 -5543 -6299 -6299 -4980 -5005 -4563 -5102 -5806 -5225 -5259 -5078 -5116 -5381 -5268 -4378 -4322 -4935 -4906 -4906 -4223 -4944 -2729 -3903 -4558 -4564 -4886 -5263 -4625 -5532 -4980 -6405 -3124 -3756 -3756 -3922 -5242 -5966 -5546 -5725 -5295 -5193 -5240 -5150 -4697 -4804 -4848 -4707 -4169 -3649 -3649 -3692 -4615 -4862 -5049 -4923 -6606 -6753 -6529 -6256 -6173 -6443 -6803 -5661 -5978 -5575 -5575 -2706 -2111 -2071 -2123 -1399 -1574 -1236 -919 -662 -319 -252 -6 -72 -45 -53 -53 -134 -73 -51 -53 -63 -8 -13 15 -4 23 -21 -32 -30 -35 -31 -31 -29 -26 -25 -5 -21 -38 -45 -42 -45 -38 -31 -25 -17 -9 -9 58 35 -5 -5
-3779 -3655 -3658 -3494 -3632 -3632 -3568 -3566 -3531 -3517 -3735 -3501 -3426 -3338 -3071 -3117 -3033 -2953 -3025 -3351 -3351 -3438 -3440 -3612 -3615 -3704 -3902 -3810 -3826 -3924 -4146 -4165 -4726 -4621 -4129 -4028 -4028 -4147 -3255 -3933 -4140 -4453 -4537 -4084 -3905 -3850 -3926 -3651 -3702 -3622 -3773 -3495 -3495 -3657 -3878 -3772 -3880 -3776 -3996 -4126 -3915 -4313 -3985 -4371 -4164 -4204 -3601 -4426 -4426 -4245 -4359 -4424 -4486 -4432 -4475 -4278 -4611 -4490 -4481 -4652 -4511 -4571 -4741 -5002 -5002 -5766 -3484 -1428 -150 -8 2534 3863 3922 4582 2670 1364 1794 475 450 450 421 416 458 410 349 344 321 252 244 216 179 150 168 159 148 148 172 248 373 199 179 297 235 245 219 434 338 382 314 313 317 317 288 375 375 321 357 349 319 343 316 292 336 358 228 195 193 193 193 249 251 297 332 387 560 855 783 540 452 424 444 425 727 727 1003 774 969 685 516 297 245 295 222 91 -915 -2758 -3579 -3853 -3853 -3910 -4415 -4199 -4732 -4605 -2600 -4551 -4678 -4843 -5401 -5377 -5455 -5441 -5497 -5486 -5486 -5552 -5531 -5642 -5707 -5536 -4927 -5046 -5611 -5392 -5062 -4939 -5070 -5099 -5019 -4785 -4785 -4796 -4723 -4306 -4468 -4272 -4218 -4076 -3644 -3870 -3590 -3465 -3340 -3575 -3108 -3140 -3140 -3553 -3661 -3368 -3615 -3782 -4069 -4166 -4108 -4482 -4320 -4125 -3953 -4080 -3512 -4274 -4274 -3806 -4279 -4821 -4732 -4561 -5017 -6008 -4576 -5044 -5331 -5116 -5641 -5616 -5556 -5556 -5579 -5581 -5561 -5569 -5559 -5561 -5505 -5452 -5371 -5289 -5181 -5068 -4927 -4816 -4587 -4587 -4426 -4197 -3932 -3761 -3631 -2958 -2147 -1808 -978 -24 1041 1233 1402 1452 1525 1525 1716 1480 1305 1241 1292 1310 1329 1159 1163 1111 1088 1076 1089 1142 1214 1214 1391 1452 1504 1447 1416 1291 1331 1202 1158 1281 1102 1166 1168 1223 1387 1387 1130 720 684 1137 1659 499 476 633 673 496 505 411 382 227 227 347 421 549 33 -448 -2365 -2060 -2815 -3035 30 -2689 -3248 -3276 -3397 -3522 -3522 -3492 -3399 -3528 -2880 -3031 -2497 -558 -2256 -3711 -4070 -4335 -4488 -4680 -4437 -4607 -4607 -4587 -4498 -4335 -4297 -4239 -4253 -3648 -4296 -4304 -4014 -4287 -3230 -3442 -2954 -1251 -1251 -358 -137 -1740 -2886 -3564 -4267 -3660 -3458 -3498 -3280 -3187 -3554 -3375 -4237 -4237 -3331 -3984 -4463 -3679 -3247 -3281 -3806 -4395 -4061 -4745 -4751 -4904 -5057 -5085 -5207 -5207 -5261 -5294 -5485 -5173 -5285 -5250 -5343 -5070 -5244 -4821 -5017 -5256 -5024 -5007 -4622 -4622 -5014 -4134 -5280 -4833 -5316 -5482 -5048 -4603 -5185 -4678 -3789 -1936 -3154 -5670 -5505 -5505 -5255 -5198 -5180 -5645 -5928 -5316 -5664 -5450 -5234 -4539 -4921 -4796 -2297 -4315 -4685 -4685 -3860 -5361 -5250 -5185 -5271 -5129 -2014 -4686 -3898 -4943 -2606 -4729 -4618 -4482 -4482 -4568 -4948 -5734 -5270 -4515 -4917 -5126 -5257 -4673 -4148 -4090 -4161 -3723 -3422 -4102 -4102 -3428 -4225 -4473 -4703 -4885 -5227 -5427 -5282 -5716 -5560 -5578 -5272 -4789 -4736 -3785 -3785 -4128 -3355 -2739 -2984 -1740 -639 -164 -181 -88 -232 -116 -95 -28 -92 -104 -104 -116 -74 -67 -33 -34 43 40 -4 -14 -4 29 5 -1 -10 -9 -9 -1 -8 -3 -5 -17 -31 -37 -42 -40 -39 -32 -24 -18 -6 -6 35 46 -6 -7
-3432 -3417 -3504 -2729 -3598 -3598 -3397 -3490 -3454 -3315 -3034 -3289 -3212 -3218 -3239 -3114 -3012 -3000 -3253 -3221 -3221 -3399 -3458 -3483 -3596 -3649 -3707 -3768 -3821 -3946 -3763 -3949 -4411 -4512 -4453 -4469 -4469 -4326 -4386 -4112 -4262 -4069 -4123 -4005 -3951 -4030 -3985 -3849 -3376 -3490 -3430 -3527 -3527 -3509 -3923 -3890 -3915 -3877 -4054 -3848 -4030 -4086 -4392 -4053 -4114 -4180 -4106 -4207 -4207 -4197 -4168 -4224 -4275 -4350 -4273 -4636 -4658 -4786 -4760 -4762 -4544 -4567 -4711 -4747 -4747 -5028 -5711 -2657 -1447 -129 520 2507 4071 4291 2433 957 2912 1676 821 821 2037 1037 377 359 331 287 267 232 182 186 192 163 166 148 134 134 165 170 191 157 177 343 399 243 316 426 456 339 321 347 309 309 377 333 389 380 378 327 294 331 289 307 339 364 253 201 199 199 260 290 289 284 389 396 367 879 772 696 738 776 758 417 441 441 1160 850 600 560 319 297 252 222 130 -12 -2502 -3288 -3870 -4201 -4201 -4329 -4431 -4100 -4033 -4699 -4629 -4204 -4746 -5166 -5216 -5377 -5525 -5395 -5527 -5536 -5536 -5524 -5563 -5471 -5751 -5572 -5048 -5934 -5284 -4968 -5229 -4953 -5051 -4984 -5149 -5058 -5058 -4861 -4626 -4477 -5015 -4551 -4794 -4315 -3960 -3686 -3361 -3040 -3683 -2979 -2976 -3593 -3593 -3441 -3931 -3512 -3901 -4136 -4012 -4244 -4039 -4378 -3880 -3753 -3610 -3348 -4107 -4343 -4343 -4492 -4870 -5069 -4537 -5083 -5273 -5449 -4969 -5687 -4942 -5096 -5671 -5634 -5502 -5502 -5550 -5587 -5560 -5560 -5570 -5525 -5504 -5460 -5364 -5286 -5186 -5040 -4918 -4788 -4619 -4619 -4324 -4196 -3844 -3553 -3472 -3095 -2034 -1591 -726 127 1149 2172 1536 1459 1735 1735 1746 1494 1322 1359 1494 1396 1396 1272 1137 1098 1084 1078 1079 1208 1327 1327 1304 1322 1217 1311 1370 1323 1308 1328 1374 1169 1199 1171 1174 1289 1507 1507 634 576 814 1188 1458 476 657 717 780 624 572 456 324 254 254 416 358 286 133 -702 -1222 -2505 -3135 -3417 -3358 -42 -910 -2854 -3061 -3408 -3408 -378 -2657 -3521 -50 -320 -41 52 -1345 -3245 -4172 -4200 -4460 -4383 -4669 -3831 -3831 -4659 -4683 -4582 -3901 -4463 -4328 -4263 -4367 -4174 -4200 -4237 -4205 -3415 -2960 -2086 -2086 -266 -2660 -2894 -3998 -3319 -4297 -3734 -3914 -3164 -3957 -3180 -3217 -3566 -2802 -2802 -3544 -3727 -4056 -4132 -3857 -3541 -3666 -4699 -4242 -4816 -4871 -4992 -5017 -5176 -5142 -5142 -5097 -5338 -5485 -5282 -5216 -5397 -4937 -5179 -5308 -4962 -4853 -5093 -5170 -5012 -5105 -5105 -4532 -4457 -4959 -4502 -5414 -4862 -4874 -4724 -5112 -4365 -3415 -1618 -4251 -5357 -5421 -5421 -5649 -5722 -5689 -5935 -5987 -5532 -5460 -5198 -4816 -3095 -4537 -4206 -2844 -4850 -4995 -4995 -3316 -5282 -5489 -5828 -5275 -4788 -4716 -3862 -4147 -4689 -5006 -4645 -5416 -4902 -4902 -5556 -5620 -5591 -5289 -5229 -5386 -5124 -4729 -4572 -4249 -3399 -3524 -2846 -2526 -4790 -4790 -2472 -4490 -5308 -4709 -5280 -4999 -5277 -4939 -5032 -5399 -5403 -5444 -5211 -5000 -3791 -3791 -2968 -3528 -3416 -2536 -1636 -538 -45 -84 -92 -116 -64 -75 -52 -59 -91 -91 -99 -108 -93 -24 -44 -33 -12 11 -1 3 4 103 142 3 16 16 16 -2 -2 1 -15 -28 -38 -41 -39 -39 -34 -27 -15 10 10 68 74 -6 -7
-3539 -3508 -3389 -3648 -3441 -3441 -3229 -3335 -3374 -3318 -3295 -3274 -3361 -3224 -2966 -3093 -3011 -3072 -3208 -3345 -3345 -3353 -3369 -3504 -3653 -3520 -3697 -3690 -3689 -4181 -4084 -4223 -4251 -4386 -4295 -4389 -4389 -4606 -4197 -3677 -4301 -4025 -4048 -3893 -3998 -3886 -3901 -3716 -3589 -3243 -3710 -3711 -3711 -3821 -3786 -3365 -3889 -3955 -4223 -3906 -4119 -3964 -4092 -4135 -4019 -4106 -4054 -4251 -4251 -4097 -4089 -4389 -4180 -4671 -4457 -4882 -4923 -4817 -4832 -4736 -4800 -4574 -4681 -4597 -4597 -4784 -5068 -4347 -1931 -544 -115 2615 4656 4608 3908 3449 1667 1253 2110 2110 2804 2036 541 316 279 220 209 201 194 179 167 165 152 156 135 135 146 155 146 153 160 162 200 275 305 622 373 419 434 379 352 352 334 279 371 348 420 379 377 340 331 335 346 312 219 211 213 213 295 258 290 273 304 410 432 936 777 742 758 826 481 420 601 601 836 1015 393 603 242 435 222 -2 16 -2587 -3437 -3812 -4191 -4286 -4286 -4293 -4415 -3703 -4652 -4553 -4603 -4580 -3316 -5229 -5285 -5404 -5460 -5447 -5519 -5571 -5571 -5311 -5254 -5306 -5892 -6174 -5217 -5346 -5073 -5125 -4543 -5057 -4824 -4659 -5058 -4890 -4890 -5213 -4977 -4566 -4300 -3928 -4006 -4133 -4147 -3491 -3784 -3362 -2541 -3038 -3054 -3469 -3469 -3965 -3394 -3531 -3975 -3986 -4521 -4299 -4719 -4215 -4185 -3916 -3691 -3681 -2122 -2258 -2258 -3966 -4208 -4462 -5025 -4703 -3222 -5034 -5177 -5539 -5296 -5718 -5427 -5573 -5518 -5518 -5557 -5589 -5564 -5551 -5566 -5528 -5486 -5438 -5366 -5278 -5171 -5049 -4901 -4792 -4575 -4575 -4294 -4194 -3940 -3716 -3563 -2916 -2152 -1158 196 748 860 1485 1765 1676 1754 1754 1697 1418 1399 1544 1411 1287 1454 1378 1151 1138 1107 1082 1112 1241 1229 1229 1140 1204 1140 1224 1245 1279 1264 1292 1207 1256 1232 1244 1261 1474 1415 1415 609 608 1019 1114 927 477 476 1495 1530 747 462 444 398 358 358 373 396 279 117 -946 -2410 -2695 -3175 -3460 -3464 -2972 -3636 -2870 -7 -3470 -3470 -3539 -3502 -3250 -38 -91 -16 377 -17 -1189 -4048 -4133 -4121 -4732 -4499 -4634 -4634 -4714 -4642 -4498 -4651 -4214 -4387 -4498 -4354 -4317 -4166 -4193 -3888 -3766 -3376 -1145 -1145 -2193 -2571 -3172 -4072 -4014 -3687 -3566 -3962 -3294 -2727 -3422 -3012 -3335 -3581 -3581 -3439 -3862 -4121 -3347 -3516 -3708 -3596 -4873 -5063 -4907 -5462 -4978 -5096 -5148 -5210 -5210 -5095 -5426 -5538 -5403 -5450 -5329 -5042 -5081 -5034 -4741 -4943 -5036 -5060 -4948 -4441 -4441 -4204 -4168 -4821 -5179 -4712 -4768 -4783 -4636 -5011 -4622 -3037 -1261 -5360 -5760 -4880 -4880 -4771 -5679 -5613 -5533 -6092 -5489 -5280 -5533 -4718 -4618 -4221 -4268 -4669 -4617 -4957 -4957 -3379 -5576 -5365 -6030 -6083 -4802 -4782 -4588 -2904 -4810 -4151 -4881 -6054 -5477 -5477 -4912 -5816 -5400 -5170 -4513 -5514 -3987 -4421 -4530 -4375 -4784 -4460 -4028 -4090 -4963 -4963 -3553 -5739 -5532 -5410 -5192 -5534 -5320 -5447 -5746 -5510 -5522 -5528 -5376 -5032 -3642 -3642 -2632 -2162 -2329 -1871 -1595 -540 -503 -204 -115 -81 -86 -99 -52 -80 -65 -65 -105 -97 -86 -76 -34 -8 22 5 25 33 14 215 277 96 46 46 89 97 60 -2 -15 -29 -35 -38 -38 -38 -34 -28 -16 -2 -2 50 92 68 -15
-3653 -3396 -3373 -3679 -2184 -2184 -3466 -3240 -3203 -3194 -3236 -3269 -3163 -2985 -2979 -2696 -3060 -3056 -3266 -3341 -3341 -3319 -3511 -3406 -3669 -3631 -3575 -3797 -3806 -3801 -4059 -4083 -4111 -4275 -4315 -4675 -4675 -3203 -4072 -3662 -4204 -4022 -3950 -3801 -3836 -3805 -3807 -3890 -3786 -3756 -3686 -3759 -3759 -4154 -3408 -3853 -3561 -4014 -4203 -4007 -3873 -3761 -4161 -4043 -3886 -3946 -4029 -4194 -4194 -4094 -4112 -4373 -4571 -4556 -4684 -5000 -4802 -4949 -4766 -4794 -4799 -4678 -4658 -4524 -4524 -4403 -4671 -5230 -3266 -1373 -160 162 3376 4600 4519 3552 2331 3245 4639 4639 3118 3615 2834 807 551 426 258 225 206 184 170 173 160 148 139 139 134 138 139 140 179 154 158 181 237 271 603 448 534 494 445 445 348 327 361 421 453 444 391 426 402 382 395 367 220 218 318 318 266 343 342 384 475 573 508 991 814 712 705 672 464 443 954 954 735 1054 1146 397 759 444 175 -28 -1700 -3151 -3701 -4114 -4293 -4385 -4385 -4422 -4473 -4467 -4770 -4567 -4573 -4764 -4973 -5066 -4808 -5365 -5408 -4899 -5529 -5634 -5634 -5498 -5266 -5690 -5573 -5496 -5795 -5493 -5441 -5605 -5396 -5137 -5169 -5414 -5209 -5174 -5174 -5255 -4832 -4333 -4086 -4145 -3831 -3667 -3975 -3600 -3474 -3282 -2559 -2787 -2679 -3223 -3223 -3180 -3604 -3640 -3622 -3572 -4339 -3672 -3228 -3856 -3901 -4024 -4473 -3756 -3807 -4196 -4196 -4165 -4893 -4711 -4268 -4465 -4768 -5227 -5811 -5888 -5423 -4889 -5507 -5505 -5544 -5544 -5488 -5541 -5579 -5561 -5530 -5506 -5491 -5501 -5403 -5276 -5182 -5078 -4909 -4739 -4528 -4528 -4317 -4169 -3933 -3587 -3467 -2925 -2079 125 703 714 978 1154 1666 1628 1666 1666 1675 1416 1438 1513 1538 1483 1350 1253 1214 1177 1103 1085 1073 1084 1136 1136 1120 1192 1212 1305 1284 1182 1176 1141 1163 1272 1276 1346 1473 1272 563 563 668 676 966 1059 1121 517 476 1323 1007 601 596 581 604 497 497 642 400 307 221 -1520 -1677 -2799 -3111 -3318 -3492 -3558 -3555 -3343 -2785 -3506 -3506 -3518 -3347 -3018 -2125 -4 -33 108 233 -1876 -3724 -3972 -4060 -4574 -4688 -4687 -4687 -4587 -4551 -4520 -4579 -4372 -4318 -4509 -4392 -4384 -4237 -4178 -3884 -3822 -3154 -331 -331 -1982 -3056 -3439 -3708 -4008 -3581 -3376 -3221 -3194 -3023 -3199 -4554 -3042 -3767 -3767 -3803 -3571 -3411 -3641 -4122 -3932 -4540 -4775 -4732 -4324 -5012 -5024 -5108 -4925 -5147 -5147 -5299 -5368 -5357 -5437 -5399 -5272 -4677 -4906 -4786 -4721 -4945 -5392 -4869 -4732 -4490 -4490 -4327 -4419 -4498 -4755 -4798 -4611 -4392 -4936 -5010 -4600 -2634 -2349 -5144 -5138 -4592 -4592 -5596 -5977 -5437 -5009 -5879 -5287 -5215 -5822 -5667 -4695 -3331 -1406 -5205 -4940 -5145 -5145 -4644 -5607 -5797 -6227 -6347 -5338 -4500 -4394 -4082 -3303 -4013 -5688 -5847 -5664 -5664 -2645 -5689 -4571 -5198 -4231 -4142 -2829 -3664 -2382 -5061 -5193 -5613 -5578 -5360 -5206 -5206 -5126 -5247 -5073 -5256 -5620 -5572 -5623 -5728 -5549 -5702 -5693 -5688 -5537 -4992 -2129 -2129 -2813 -2015 -2167 -1512 -391 -540 -432 -219 -141 -128 -61 -33 -23 -73 -90 -90 -68 -57 -57 -60 -19 3 91 52 141 46 59 337 312 218 80 80 110 47 -2 -4 -15 -27 -36 -40 -40 -38 -37 -31 -13 15 15 63 111 172 -6
-3706 -3572 -3495 -3272 -3381 -3381 -3268 -3442 -3593 -2565 -3474 -2653 -2916 -3043 -2968 -3109 -3010 -3142 -3095 -3253 -3253 -3441 -3457 -3649 -3511 -3656 -3612 -3595 -3869 -3968 -4221 -3842 -4004 -4164 -4341 -4221 -4221 -4159 -3809 -3742 -3761 -3895 -3753 -3485 -3737 -3902 -4098 -3937 -3225 -3883 -3808 -3722 -3722 -3677 -3958 -3770 -3991 -3811 -3856 -3825 -3856 -3317 -4417 -4106 -4219 -4147 -4053 -4252 -4252 -4458 -4149 -4593 -4740 -4880 -4736 -4953 -4780 -4931 -4782 -4957 -4945 -4687 -4574 -4536 -4536 -4547 -4454 -4736 -5422 -3010 -502 -2 1058 3834 4535 4192 2315 4242 4064 4064 3347 4314 4657 4985 3210 989 1590 660 299 214 177 167 157 147 151 151 141 147 157 148 158 229 183 296 434 232 606 593 583 580 475 475 462 405 378 484 487 514 485 370 384 404 372 281 228 233 233 233 276 390 699 703 632 703 459 999 851 671 672 681 451 462 819 819 648 498 964 366 637 290 266 -72 -2535 -3422 -3721 -4166 -4361 -4428 -4428 -4506 -4581 -4590 -4647 -4107 -4671 -4806 -4677 -4601 -5070 -4082 -4845 -5037 -5478 -5579 -5579 -5244 -5166 -5805 -4907 -5769 -5156 -5688 -5183 -5237 -5193 -5142 -5107 -5101 -5145 -4735 -4735 -4732 -4484 -4366 -4509 -4132 -4336 -3476 -4008 -3725 -3539 -2998 -2766 -2564 -3095 -3248 -3248 -3666 -3607 -3093 -3453 -3611 -3622 -3710 -3677 -3541 -3358 -3667 -4097 -3817 -3831 -3523 -3523 -4292 -4157 -4415 -4475 -4018 -4427 -5147 -5399 -5955 -5613 -5291 -5560 -5502 -5503 -5503 -5481 -5494 -5574 -5544 -5498 -5494 -5505 -5486 -5433 -5318 -5184 -5013 -4889 -4731 -4554 -4554 -4308 -4027 -3804 -3609 -3302 -3003 -887 599 1753 768 1945 1656 1556 1585 1644 1644 1567 1538 1525 1363 1308 1295 1281 1255 1312 1220 1094 1060 1057 1079 1099 1099 1167 1177 1163 1234 1184 1299 1158 1217 1209 1215 1246 1423 1195 747 572 572 733 950 1259 1072 1238 678 476 1196 870 614 853 755 663 509 509 438 333 305 225 -1178 -1592 -2571 -3141 -3237 -3496 -3527 -3499 -3447 -3514 -3433 -3433 -3321 -2915 -2127 -37 -41 890 597 178 -907 -3559 -3901 -4171 -4437 -4592 -4562 -4562 -4698 -4573 -4349 -4545 -4218 -4488 -4380 -4020 -4686 -4411 -4116 -4052 -3827 -2373 -183 -183 -1772 -2709 -3562 -3894 -4126 -3751 -3395 -3380 -3039 -3050 -2769 -3072 -3091 -3437 -3437 -3635 -3332 -4078 -3762 -3904 -4407 -4494 -4587 -5129 -4395 -4699 -5031 -5287 -5435 -5208 -5208 -5365 -5318 -5285 -5326 -5255 -5249 -4799 -4813 -4970 -4979 -4807 -4871 -5052 -4627 -4417 -4417 -3926 -4602 -4834 -5242 -4981 -4414 -4390 -3563 -4248 -3929 -2312 -2738 -4910 -5038 -5267 -5267 -5041 -5390 -5435 -5159 -5872 -5467 -5142 -5980 -5576 -4997 -4457 -4122 -5544 -4869 -4588 -4588 -4875 -5558 -5505 -6307 -5979 -6277 -4828 -4433 -4674 -4990 -5772 -5624 -5546 -5629 -5629 -5820 -5876 -5769 -5961 -5693 -5538 -5257 -1983 -4591 -4816 -5616 -5601 -4974 -5358 -5354 -5354 -4783 -4997 -5196 -5758 -5635 -5639 -5684 -5770 -5671 -5722 -5713 -5849 -5218 -3681 -2809 -2809 -2356 -2371 -1683 -591 -496 -430 -277 -190 -110 -70 -59 -36 -6 -5 -25 -25 -78 -64 -51 -35 -4 40 152 75 197 214 254 377 245 156 139 139 102 23 9 -2 -13 -27 -35 -38 -39 -39 -38 -28 -16 31 31 62 106 414 -6
-3696 -3680 -3494 -3219 -3310 -3310 -3240 -3326 -3118 -3201 -3139 -3020 -3097 -3143 -3021 -3176 -3304 -3182 -3179 -3452 -3452 -3228 -3561 -3677 -3570 -3418 -3774 -3493 -3774 -3939 -3459 -4358 -3710 -4137 -4455 -4324 -4324 -4078 -3998 -3338 -4014 -3704 -3649 -3519 -3672 -3663 -3275 -4274 -3883 -3642 -3631 -3705 -3705 -3727 -3976 -3992 -3968 -3330 -4276 -3837 -3438 -4175 -4130 -4093 -4207 -4372 -4281 -4566 -4566 -4257 -4672 -4681 -4724 -4926 -4786 -4848 -5081 -4787 -4805 -5027 -4887 -4692 -4663 -4673 -4673 -4490 -4264 -4332 -4453 -5208 -2206 -40 430 2309 3971 4386 4273 3712 4622 4622 3906 4267 3590 4918 4253 4585 2583 1745 1407 292 179 164 159 151 148 148 147 162 165 245 177 202 253 190 641 192 229 653 660 663 653 653 347 401 428 478 650 429 465 568 403 451 316 247 242 243 292 292 305 386 506 446 1022 539 497 819 870 781 607 454 450 488 524 524 572 488 440 394 479 147 108 -1286 -2815 -3578 -4053 -4205 -4373 -4555 -4555 -4601 -4645 -4612 -4553 -4489 -4606 -4476 -4756 -4725 -4952 -5211 -5112 -5123 -5029 -5120 -5120 -4848 -5266 -5201 -5413 -5688 -5450 -5029 -5464 -5918 -5018 -4868 -4954 -4842 -4756 -4812 -4812 -4969 -4109 -4346 -4300 -4549 -4206 -4298 -4116 -3816 -3755 -3804 -3187 -2443 -1639 -2740 -2740 -3142 -3262 -3499 -3483 -3332 -3440 -3579 -3455 -3699 -4174 -3848 -4253 -4115 -4068 -4303 -4303 -4047 -3658 -4913 -4259 -4643 -4728 -4900 -4841 -4724 -5269 -5293 -5402 -5505 -5357 -5357 -5394 -5537 -5516 -5525 -5492 -5476 -5486 -5478 -5426 -5304 -5215 -5019 -4856 -4641 -4456 -4456 -4257 -3840 -2483 -3502 -3053 -2667 -104 593 719 893 1604 1368 1423 1397 1540 1540 1463 1458 1459 1497 1342 1341 1268 1304 1266 1185 1079 1055 1044 1037 1089 1089 1164 1184 1163 1100 1132 1212 1119 1115 1183 1198 1146 1245 618 678 959 959 1067 999 1196 1125 1187 1540 476 488 730 701 643 527 446 417 417 348 373 297 99 -7 -2716 -2385 -2994 -3337 -3498 -3500 -3517 -3647 -3276 -3285 -3285 -2874 -2099 -1218 -6 175 1602 1207 714 -369 -3220 -3878 -4358 -4340 -4781 -4615 -4615 -4711 -4331 -4393 -4401 -4279 -4536 -4350 -3905 -4256 -4261 -4013 -4022 -3937 -75 -57 -57 -1989 -2776 -3593 -3698 -3730 -4162 -3476 -3557 -3575 -3249 -2089 -2756 -3089 -3473 -3473 -3277 -3594 -3563 -3919 -3323 -4088 -4291 -4122 -5730 -5524 -4622 -4939 -5105 -5223 -4996 -4996 -5185 -5261 -5245 -5345 -5303 -5102 -5015 -4867 -4956 -4951 -4896 -4880 -4974 -4808 -4737 -4737 -4586 -4134 -5165 -4490 -3658 -3586 -2675 -2214 -2555 -3557 -2558 -3037 -5040 -5344 -5474 -5474 -4663 -5489 -5516 -5291 -5920 -5314 -5220 -5816 -5611 -4707 -4975 -5187 -4867 -4556 -5081 -5081 -5392 -6005 -5242 -4881 -6258 -5969 -4777 -4964 -5125 -4984 -5156 -5707 -5880 -5903 -5903 -5909 -5693 -5592 -5141 -5556 -5093 -5287 -3704 -4094 -5673 -5581 -5750 -5645 -5473 -4959 -4959 -4317 -4413 -4605 -5776 -5651 -5730 -5822 -5837 -5597 -5727 -5714 -5747 -5431 -4520 -3104 -3104 -2950 -2360 -2131 -470 -367 -254 -104 -93 -109 -55 -17 -4 47 145 152 152 -15 -35 -32 -18 27 243 275 95 124 233 224 270 114 178 192 192 24 7 -4 13 -11 -27 -34 -38 -39 -38 -38 -31 -14 13 13 72 154 201 -6
-3494 -3672 -3552 -3409 -3415 -3415 -3418 -3218 -3317 -3360 -3125 -3140 -3066 -3046 -3113 -3129 -3290 -3271 -3438 -3360 -3360 -3453 -3397 -3597 -3679 -3715 -3734 -3384 -4050 -3898 -3782 -4027 -3850 -4022 -4369 -4052 -4052 -4079 -4730 -4501 -4098 -3666 -3530 -3509 -3707 -3615 -3594 -3630 -3582 -3537 -3686 -3867 -3867 -3996 -4024 -4207 -3973 -4037 -4189 -3802 -4041 -4307 -4318 -4365 -4382 -4343 -4110 -4497 -4497 -4671 -4573 -4670 -4791 -4793 -4766 -4858 -4984 -4770 -4756 -4760 -4964 -4861 -4699 -4569 -4569 -4448 -4073 -4061 -4204 -4237 -4787 -1603 325 345 2203 3792 4556 4468 4568 4568 4832 4260 4026 3921 4102 4758 4760 1764 1934 380 631 188 174 169 153 153 157 171 183 460 237 223 249 193 213 470 629 669 647 505 197 197 201 208 225 334 387 535 724 557 440 350 292 259 257 265 347 347 461 573 597 938 1050 474 705 762 839 723 782 654 465 489 561 561 765 694 445 927 694 365 64 -1507 -2987 -3838 -4127 -4350 -4399 -4456 -4456 -4516 -4558 -4534 -4576 -4549 -4554 -4777 -4825 -4748 -4891 -5135 -5194 -4884 -5191 -5194 -5194 -5195 -4766 -5187 -5343 -5389 -5553 -5357 -5713 -5166 -5244 -5679 -4839 -4736 -5079 -4961 -4961 -5028 -4708 -4676 -4582 -4345 -3956 -4167 -3637 -3768 -3663 -3414 -3351 -2809 -2717 -2543 -2543 -3059 -3065 -2746 -3198 -3180 -3433 -3622 -3607 -3839 -3935 -4004 -4098 -4283 -4096 -4002 -4002 -4241 -4152 -3959 -4288 -4614 -4284 -5419 -5480 -5581 -5359 -5397 -5121 -5322 -5330 -5330 -5288 -5320 -5490 -5538 -5511 -5502 -5489 -5475 -5424 -5287 -5122 -5017 -4890 -4730 -4471 -4471 -4523 -3971 -3549 -3378 -2816 -2115 -59 719 827 1715 1430 1296 1282 1440 1481 1481 1492 1450 1381 1414 1357 1309 1255 1236 1158 1159 1100 1042 1031 1030 1087 1087 1107 1187 1191 1125 1112 1237 1260 1144 1122 1060 548 501 623 901 1060 1060 1073 736 493 689 1197 1056 1083 473 673 640 561 572 606 535 535 500 436 295 218 110 -2837 -2637 -2970 -3273 -3329 -3437 -3742 -3476 -3179 -2987 -2987 -2442 -923 -13 138 127 1320 1032 405 -9 -2600 -3445 -4031 -4296 -4626 -4785 -4785 -4360 -4735 -4516 -4223 -4168 -4300 -3613 -4348 -4309 -4140 -3950 -3959 -3881 -160 -86 -86 -1930 -3195 -3792 -3715 -4081 -3657 -3299 -3581 -3631 -2680 -2325 -3363 -2709 -3391 -3391 -3486 -3821 -3837 -3815 -4506 -4394 -4664 -4782 -4256 -4280 -5098 -5102 -5145 -5248 -4997 -4997 -5078 -4990 -5127 -5134 -5228 -5242 -5027 -4820 -4941 -4883 -5025 -4912 -4312 -4973 -4764 -4764 -4940 -4521 -4572 -4757 -4120 -3029 -2420 -1809 -2098 -3212 -2009 -3871 -5309 -5944 -5550 -5550 -5071 -5317 -5121 -4919 -5856 -5451 -5181 -5867 -5078 -4337 -1269 -5190 -4710 -4920 -4973 -4973 -5564 -6047 -5081 -6238 -5741 -5689 -5599 -5382 -5278 -5471 -5871 -5908 -6253 -6033 -6033 -5750 -6005 -5841 -5899 -5844 -5508 -5629 -5171 -5070 -5664 -5660 -5745 -5564 -5142 -4494 -4494 -4137 -3198 -4416 -3078 -5670 -5659 -5762 -5773 -5726 -5900 -5725 -5789 -5545 -3647 -2628 -2628 -1715 -1181 -572 -266 -120 -85 -81 -20 -21 -33 103 225 277 104 282 282 203 -4 -2 -2 74 168 234 154 120 155 217 154 80 63 10 10 6 -4 -4 -4 -11 -23 -28 -31 -34 -37 -37 -33 -13 15 15 56 119 180 33
