ncols        563
nrows        32
xllcorner    -9222858.13303
yllcorner    -2167607.7737
cellsize     27818.988868520672
914 950 898 899 464 464 453 1364 792 1023 687 679 672 342 676 994 436 1099 1049 1258 1102 1102 1161 1165 2221 1535 1528 1520 1506 1515 2097 2069 1767 1794 1821 1225 2085 2159 2159 2174 2174 2185 2250 2264 2286 2301 2324 2369 2396 2433 2458 2485 2538 2628 2628 2723 2794 2881 2942 3066 3082 3134 3224 3336 3434 3548 3678 3755 3904 3962 3962 4028 4164 4258 4377 4457 4480 4538 4654 4710 4833 4853 4986 5032 5072 5103 5154 5154 5153 5194 5191 5199 5189 5207 5176 5108 4991 4963 4944 5307 5743 5275 5656 5656 5030 4958 4375 6146 6182 6196 6096 6081 5968 5857 5747 5647 5577 5436 5288 5288 5132 4996 4894 4774 4671 4497 4447 4395 4313 4331 4269 4225 4119 4025 3986 3986 3853 3765 3738 3710 3642 3593 3547 3442 3424 3349 3432 3225 3166 3185 3047 3007 3007 2847 2804 2788 2780 2735 2704 2683 2623 2649 2621 2560 2530 2485 2405 2284 2284 2296 2293 2283 2302 2349 2380 2533 2839 2990 3155 3321 3349 3256 3294 3232 3232 3279 3154 3070 2967 3003 2992 3005 2976 2952 2858 2882 2956 3043 3177 3250 3380 3380 3241 3257 3320 3513 3802 3719 3988 3866 2854 1746 1286 1163 1202 1129 1142 1142 1137 1169 1255 1279 1361 1530 1526 1442 1609 1352 1189 11 799 802 828 828 910 924 1001 981 894 909 865 829 830 849 1174 359 -967 -1259 900 787 787 631 740 726 683 621 437 348 305 181 110 191 -277 -271 -225 -295 -295 -180 -462 -602 -1545 -1054 -228 -455 -415 -407 -484 -832 -674 -737 -966 -1017 -1017 -917 -32 -387 -660 -884 -927 -983 -745 -511 -605 -497 -705 -522 -627 -521 -521 -701 -676 -649 -903 -969 -1252 -1288 -1242 -1123 -802 -460 -130 305 420 465 403 403 -167 -109 -220 -163 -158 -141 -132 -207 -120 -28 408 543 827 1703 2140 2140 1403 1076 1713 1571 1099 862 859 1129 701 577 626 622 658 801 223 223 677 -116 868 706 1343 1280 1136 1148 1188 1229 602 1649 1772 1954 895 -104 -104 -566 -320 1634 2129 1843 1746 1644 1535 1544 1498 1888 2033 1880 1810 1811 1811 1788 1905 1957 1941 2111 2572 2207 2222 2132 2302 2416 2633 2558 2285 2460 2460 2279 2101 2651 2798 2782 2457 2421 2704 2612 2776 3140 3214 1088 164 3174 2666 2666 2414 2588 2851 2253 2073 1864 1590 1586 1494 1466 1490 1562 1764 1887 1673 1673 1106 2130 1760 1187 2028 1993 1554 2002 2056 1578 1131 1080 1085 1449 738 738 1361 949 941 813 750 720 401 632 -424 -36 -388 -384 -1152 -1026 -537 -537 -715 -649 -127 -764 -879 -850 -711 -591 -290 -237 -689 -2523 -2313 -338 -1303 839 839 -334 -575 -974 -1135 -1329 -927 -753 -1868 -2773 -1160 -697 375 1308 527 502 502 -813 -106 203 183 330 271 314 294 158 289 473 654 791 814 1116 1116 1018 1054 1199 1106 807 701 687 712 1018 1120 1336 1537 1867 2138 1970 2652 2652 2422 2620 2640 2769 2682 2742 2800 2781 2579 2544 2169 1820 1323 1386 1418 1418 1445 1484 1474 1516 1709 1754 1850 1889 2015 2201 2298 2394 2526 2716 2464 2464 1745 1725 1738
999 140 171 122 764 764 442 1655 2118 1113 653 718 681 702 681 501 1375 1646 2644 760 1051 1051 1040 2449 1995 1552 1583 1484 1473 2422 2237 1736 1733 1747 1734 2025 2489 2176 2176 2173 2176 2176 2163 2192 2222 2253 2277 2295 2376 2424 2457 2510 2563 2641 2641 2685 2796 2853 2912 2996 3032 3104 3180 3246 3345 3499 3562 3687 3770 3815 3815 3941 4065 4144 4261 4281 4318 4397 4530 4649 4671 4773 4896 4906 4959 5014 5043 5043 5114 5201 5101 5080 5077 5055 5113 5074 4961 4956 4920 5331 5051 6175 6723 6723 5223 4804 4198 5713 6092 6077 6090 6026 5910 5876 5726 5656 5575 5478 5285 5285 5122 5015 4853 4773 4584 4532 4387 4332 4238 4187 4166 4104 4043 3927 3847 3847 3776 3745 3703 3658 3623 3537 3483 3445 3383 3346 3245 3155 3121 3088 3013 2853 2853 2769 2769 2753 2667 2697 2644 2567 2585 2728 2514 2673 2506 2456 2345 2319 2319 2356 2264 2258 2279 2377 2426 2423 2906 2998 3324 3285 3404 3399 3374 3237 3237 3240 3111 2996 2934 2949 2921 2914 2914 2842 2898 2800 2861 3000 3170 3217 3444 3444 3207 3284 3376 3609 4151 4289 3748 2832 1249 1534 1362 1166 1096 1122 1124 1124 1114 1109 1170 1262 1405 1296 1407 1108 1490 1130 1097 1032 887 823 889 889 1026 1033 1138 1058 1056 870 802 880 840 843 999 935 1220 1409 1047 594 594 537 501 639 685 534 434 390 235 -311 -325 -511 -729 -666 -553 -589 -589 -366 -126 -1124 -1008 -1048 -458 -364 -318 -446 -564 -610 -587 -512 -895 -639 -639 368 -40 -438 -668 -853 -966 -823 -653 -562 -373 -442 -617 -640 -457 -443 -443 -723 -679 -687 -663 -959 -1033 -1093 -1099 -744 -527 -266 -159 106 257 404 314 314 204 -173 -207 -165 -126 -120 -69 -36 -75 201 396 752 1514 2024 1016 1016 909 850 810 971 1131 1174 1262 1002 685 685 612 800 888 1245 659 659 613 733 690 619 707 1512 1210 1225 1204 1293 1356 1489 1651 1987 395 -268 -268 -399 -476 135 2537 2032 1764 2216 1919 1420 1505 1986 1850 1577 1914 2167 2167 2069 2006 1747 1932 2481 813 686 2611 2246 1670 1500 2644 2234 1845 1757 1757 1648 1779 2361 2525 2604 2416 2382 2518 2542 2572 2931 1663 3191 3014 2524 2281 2281 2116 2854 2600 2523 2146 1821 1521 1389 1341 1341 1467 1435 1553 1558 1881 1881 835 2063 1769 1752 1558 2024 2179 2012 1823 1634 1366 1261 1039 1084 1192 1192 1066 1095 909 671 637 539 841 162 -371 -329 1 108 -438 281 -1185 -1185 -349 -516 -712 -692 -784 -852 -864 -435 -1693 -1189 -824 -814 -861 -894 -1056 -755 -755 -1133 -1235 -1517 -1580 -1731 -1705 -1432 -907 -893 -412 -980 748 -646 -805 -420 -420 -1126 -66 45 91 164 -382 234 80 178 449 630 728 533 792 587 587 910 749 634 691 622 -99 630 724 806 1008 1046 1371 1675 1881 2200 2311 2311 2303 2367 2533 2602 2632 2532 2531 2600 2590 2522 2447 1263 1323 1357 1416 1416 1451 1484 1474 1588 1562 1664 1836 1885 1917 2000 2065 2251 2441 2337 2165 2165 1849 1745 1798
227 231 87 25 64 64 620 2512 2793 1264 655 697 675 732 522 509 1446 2070 2378 1135 1109 1109 1206 3284 2780 1273 861 1470 1413 2857 2000 1729 1716 1709 1716 2242 3128 2160 2160 2171 2147 2154 2038 2196 2214 2233 2238 2274 2344 2376 2397 2495 2573 2643 2643 2669 2781 2861 2875 2936 2984 3077 3168 3205 3312 3430 3523 3618 3669 3753 3753 3850 3944 4031 4079 4163 4217 4340 4423 4487 4647 4697 4758 4809 4832 4897 4922 4922 5017 5063 5082 4971 4943 5059 5039 4996 4950 4935 4908 5017 5006 5310 6387 6387 5125 4639 4216 4701 6055 6065 6010 5953 5872 5899 5724 5681 5561 5460 5337 5337 5190 5007 4905 4696 4526 4460 4468 4281 4168 4090 4065 3983 3938 3832 3792 3792 3709 3695 3646 3576 3536 3506 3433 3367 3341 3259 3136 3099 3137 3106 2831 2748 2748 2740 2788 2696 2671 2678 2692 2531 2586 2566 2536 1346 2504 2406 2353 2391 2391 2308 2273 2348 2395 2294 2359 2472 3027 3454 3301 3596 3603 3513 3462 3256 3256 3213 3090 3018 2903 2904 2796 2866 2913 2875 2666 2810 2870 2984 3014 3224 3198 3198 3227 3299 3368 3908 4307 4425 3375 2362 1648 1312 1270 1154 1146 1132 1091 1091 1109 1089 1119 985 1409 1182 1060 1116 1082 1116 1164 1068 906 902 1050 1050 1366 1404 1493 1265 1146 884 849 905 847 861 1008 994 1067 1233 878 708 708 550 283 712 690 583 374 151 -204 -493 -587 -721 -941 -1004 -1136 -1247 -1247 -580 -687 -1833 -1026 -1493 -269 -254 -350 -431 -523 -582 -558 -641 -982 -922 -922 55 31 -209 -544 -957 -982 -843 -887 -503 -1012 -1158 -362 -445 -332 -486 -486 -584 -514 -678 -1606 -1826 -517 -790 -434 -354 -165 -69 27 27 359 407 486 486 293 -134 -141 -166 -136 -69 11 90 133 188 478 776 1863 996 870 870 774 790 799 925 853 985 1133 1119 619 745 786 1169 1066 711 -98 -98 660 736 628 640 670 1534 1297 1165 1234 1258 1252 1401 1756 1977 -23 -347 -347 13 -268 -46 2695 2423 2381 2403 1592 1600 1536 1746 1673 1742 1453 2175 2175 1923 1865 1765 1854 2364 770 818 1986 2657 318 224 1295 1961 2049 1132 1132 1644 1593 1686 2046 2356 2538 1606 2525 2677 2711 2623 2709 2820 2695 2176 2131 2131 2054 2246 2486 2283 2056 1780 1551 1323 1278 1592 1196 1447 1446 1482 1701 1701 1838 2100 1991 1840 1383 1769 1992 1663 1603 2061 1924 1635 1138 1100 1103 1103 1101 967 923 655 547 588 849 -561 -320 -448 38 124 43 -329 -1152 -1152 -242 -295 -36 398 -243 -783 -828 -592 -69 -420 -801 -1036 -1294 -1367 -1260 -1046 -1046 -1187 -407 -790 -2002 -1935 -2060 -1917 -1307 -1105 105 -1163 -621 -922 -967 -560 -560 -417 -224 66 463 220 284 132 123 342 339 539 790 713 734 692 692 615 -601 204 514 510 608 -77 217 801 1264 915 1218 1458 1549 1784 2022 2022 2172 2353 2442 2387 2322 1915 2229 2168 2417 1437 1219 1415 1393 1372 1313 1313 1586 1560 1531 1763 1641 1688 1741 1832 1848 1980 2214 2254 2405 2219 2102 2102 1956 1879 1768
714 117 54 -3 271 271 1068 2036 2171 839 683 695 695 854 537 1291 1364 1873 1363 1237 1171 1171 2147 3846 1956 859 881 1810 1471 1590 1802 1724 1706 1524 1771 2149 2093 2095 2095 2119 2209 2175 2189 2184 2204 2259 2290 2284 2329 2356 2419 2459 2536 2643 2643 2689 2705 2781 2836 2911 2966 3037 3066 3143 3296 3331 3443 3497 3587 3698 3698 3772 3898 3998 4035 4087 4183 4239 4329 4378 4516 4607 4677 4691 4633 4792 4827 4827 4914 4909 4982 4908 4886 5171 5236 4950 4939 4933 4905 4892 4813 5499 5568 5568 4850 4636 4376 4317 6029 6024 5938 5917 5910 5863 5752 5639 5578 5447 5282 5282 5162 4983 4870 4702 4584 4381 4326 4197 4131 4046 3971 3896 3870 3864 3783 3783 3665 3646 3567 3558 3474 3411 3383 3268 3246 3135 3065 3021 3022 2938 2789 2711 2711 2737 2783 2756 2760 2675 2580 2526 2595 2523 2632 2559 2420 2425 2372 2419 2419 2359 2401 2430 2417 2307 2357 2897 3395 3512 3673 3584 3808 3464 3307 3258 3258 3185 3046 2977 2886 2882 2803 2924 2187 2817 2696 2773 2799 2876 2956 3088 3187 3187 3194 3364 3521 3870 4278 4384 3372 2161 1557 1283 1282 1165 1041 1076 1034 1034 1122 1093 1060 942 1317 878 845 943 963 981 997 946 912 975 1171 1171 -798 11 1836 1522 1318 1081 999 922 930 903 915 840 906 861 775 719 719 1346 824 765 773 656 437 5 -547 -989 -1112 -859 -1130 -1537 -1642 -1524 -1524 -1120 -1361 -1131 -746 -1335 -688 -615 -461 -134 -441 -606 -565 -691 -769 75 75 186 -14 -349 -784 -934 -941 -772 -687 -467 -279 39 -83 -419 -66 -295 -295 -520 -327 -428 -1600 -1716 -770 -486 -1821 -1137 -16 -25 139 155 397 442 257 257 291 211 -149 -111 -93 -84 -36 -3 248 546 601 782 1343 849 803 803 805 814 343 830 850 894 1050 1230 663 734 1135 1263 1233 747 906 906 663 769 756 625 693 1670 1362 1464 1222 1121 1301 1521 1611 1890 1349 -299 -299 -331 -172 981 2992 2671 2901 1894 1513 1492 1679 818 1820 1649 1868 1990 1990 1819 1498 1653 1673 2101 1782 1623 1732 1844 291 432 1974 1885 1903 1665 1665 1665 1770 1892 2362 2567 2741 2889 2095 1573 2705 2487 2493 2615 2414 2256 2139 2139 2009 2098 2269 2368 1999 1931 1814 1731 1724 2010 1509 1241 1223 1200 1309 1309 1673 1938 916 1770 1913 2139 260 -158 -149 -148 1163 2087 1532 848 1018 1018 988 982 994 1106 1866 844 1002 -638 -618 -611 563 -528 -526 -410 -341 -341 -431 -84 -217 -247 -168 -794 -779 -406 145 -336 -650 -849 -1242 -789 -1293 -500 -500 -1143 -656 -1200 -1694 -2142 -2185 -2138 -1410 65 315 438 142 -832 -899 -814 -814 -652 -677 198 388 190 -541 -325 250 448 746 725 836 914 1144 649 649 385 121 197 141 785 -624 -838 537 598 -1016 534 1063 1274 1320 1447 1763 1763 2088 2236 2054 1941 1640 1383 1277 1213 1529 1296 1309 1305 1357 1222 1216 1216 1313 1635 1625 1710 1650 1669 1781 2009 1998 2234 2396 2161 2050 1973 1835 1835 1788 1774 1724
1151 779 299 820 1430 1430 1064 1627 1858 707 704 724 758 968 1250 1294 767 896 1454 1225 1176 1176 2378 2309 1290 856 844 2236 1517 1710 1631 1365 1752 2026 2053 2102 2094 2106 2106 2082 2122 2140 2152 2203 2194 2220 2290 2347 2358 2388 2418 2488 2528 2614 2614 2650 2674 2733 2790 2889 2930 2967 3031 3115 3214 3233 3293 3400 3485 3584 3584 3667 3835 3912 3971 4045 4144 4162 4206 4319 4501 4558 4584 4553 4587 4758 4814 4814 4899 4822 4904 4885 4815 5017 5540 4907 4912 4931 4909 4956 5079 5122 5041 5041 4864 4643 4480 3922 5901 6012 5859 5960 5863 5847 5720 5590 5530 5370 5233 5233 5151 4996 4846 4716 4575 4390 4268 4180 4080 3976 3910 3858 3800 3746 3716 3716 3675 3639 3573 3484 3405 3435 3307 3224 3132 3089 3091 2957 2899 2816 2771 2754 2754 2784 2695 2684 2724 2676 2600 2575 2597 2598 2578 2487 2441 2395 2402 2350 2350 2406 2423 2433 2468 2359 2567 3032 3394 3665 3856 3590 3628 3574 3432 3226 3226 3134 3023 2994 2940 2936 2776 2795 2767 2717 2741 2730 2715 2771 2888 3229 2869 2869 3019 3660 3678 3664 3988 4271 3579 2343 1486 1195 1162 1109 1079 1007 1009 1009 987 1045 976 1625 974 796 751 830 785 763 809 851 815 1030 1258 1258 1680 1724 1888 1395 1495 1196 1121 1007 941 881 930 843 917 797 782 708 708 675 827 778 629 870 705 454 7 -535 -1340 -950 -1230 -1668 -1739 -1820 -1820 -1667 -1162 -830 -911 -168 -147 -709 -807 -769 -442 -503 -527 -579 -292 -1115 -1115 -1432 277 -396 -821 -927 -784 -679 -631 -599 -434 -1550 -663 -32 -567 -1553 -1553 -7 -121 -303 40 -63 -150 -166 -64 -916 200 249 342 428 533 536 371 371 402 473 -341 273 365 -79 27 -21 174 477 716 1114 922 869 819 819 809 814 631 833 831 920 988 1206 869 752 1353 1595 1407 1620 1661 1661 845 945 911 712 1600 1428 1558 1381 535 1196 1262 1511 1662 1851 1969 2383 2383 2204 2104 2322 2620 2159 2730 2052 1502 1450 1505 1569 1732 1807 1873 1959 1959 1584 1588 1615 1173 2046 1352 1383 1431 1495 1842 2118 2104 1917 1730 1703 1703 1660 1707 2272 2045 842 865 990 1453 1431 1697 2513 2792 2378 2278 3027 1609 1609 2055 2036 1914 1975 2315 1493 1017 1027 1805 2073 1725 1248 1190 1167 1393 1393 1746 1577 1475 1454 1565 1299 -8 -170 -194 -538 -104 1136 1631 1338 1096 1096 983 873 -35 408 560 279 -404 -624 -786 -894 -450 -624 -551 -566 -40 -40 -610 -556 -389 -425 461 -1359 -706 -997 -971 -560 -396 -1055 -1202 -1180 -937 -926 -926 -940 -1895 -1748 -2195 -2188 -2177 -2223 -1497 -668 -1007 -809 -636 359 -1049 -913 -913 -532 -579 -166 -743 32 -633 -509 -30 -1151 -1080 904 344 175 323 441 441 445 -42 53 76 177 161 338 -38 217 252 425 693 197 258 1279 1650 1650 1980 1794 1529 1301 685 836 880 1016 1239 1125 1290 2435 1225 1131 1201 1201 1229 1406 1563 2959 1738 1747 1780 1886 1945 1966 2091 1942 1951 1810 1747 1747 1775 1690 1675
1220 1141 1218 1382 909 909 1053 1441 862 749 755 853 922 1019 966 1232 1422 1302 1437 1521 1741 1741 1668 1921 1969 1935 2207 2448 1682 1417 1594 1776 2098 955 952 2105 2108 2082 2082 2079 2113 2129 2150 2162 2189 2215 2244 2334 2342 2375 2388 2439 2518 2588 2588 2613 2663 2708 2790 2839 2865 2896 2984 3033 3066 3061 3149 3241 3372 3497 3497 3604 3758 3803 3885 4114 4196 4126 4145 4268 4414 4383 4450 4483 4567 4659 4938 4938 4688 4739 4764 4838 4779 4824 4866 4895 4873 5077 5869 5036 4947 5178 5072 5072 4813 4648 4523 3749 5868 5911 5928 5903 5888 5821 5695 5546 5475 5298 5209 5209 5092 5005 4839 4700 4551 4462 4325 4172 4058 3945 3879 3803 3736 3682 3658 3658 3629 3546 3446 3417 3387 3298 3232 3175 3135 3154 3053 2889 2829 2780 2805 2824 2824 2766 2774 2731 2704 2639 2659 2636 2630 2606 2555 2460 2441 2384 2413 2414 2414 2491 2430 2600 2564 2597 2709 2987 3755 3852 3810 3731 3932 3750 3552 3329 3329 3106 2967 3126 2869 2815 2783 2802 2662 2685 2669 2758 2716 2760 2837 2911 3058 3058 3108 3004 3671 3411 4430 4390 3700 2635 1635 1406 1245 1036 1014 967 1086 1086 952 944 942 948 835 723 898 937 794 702 636 808 816 905 1067 1067 1390 1501 1564 1540 1348 1175 1114 997 948 932 858 832 839 865 932 778 778 738 784 749 859 848 897 36 346 74 -557 -1221 -1374 -1689 -1845 -1563 -1563 -1330 -1038 -814 -321 -164 -159 -680 -841 -492 -484 -580 -639 -441 811 -1494 -1494 -1536 -423 -309 -507 -675 -654 -297 -349 -427 -89 -1467 -546 -149 -70 -270 -270 -1373 -2152 -238 -71 -86 -116 -89 90 405 -1078 -1036 402 503 584 505 512 512 423 343 167 215 237 436 469 159 483 367 824 1354 1354 918 852 852 900 972 914 925 879 992 1180 1296 1036 225 753 1679 1569 1834 1700 1700 1698 1494 1042 1382 772 1558 1625 1702 1346 1324 1265 1422 1666 2031 2053 1914 1914 2361 2297 2513 2091 1899 2625 1552 1480 1455 1441 1584 1547 1527 1551 1781 1781 1572 1508 1494 1508 1737 1315 120 1442 1319 2116 754 1015 1937 1751 1797 1797 1693 1782 2249 1466 845 820 1421 1380 1366 2518 2672 2408 2194 2021 2799 1606 1606 2371 2076 1924 1886 1246 1207 1496 2323 1977 1716 1426 1308 1217 1338 397 397 341 1755 1499 1204 1445 1510 -127 -186 -330 -334 -349 2166 1904 1309 1395 1395 163 -85 -74 33 -87 -395 -394 -563 -845 -1081 -932 -1039 -708 -1030 -1119 -1119 -1111 -1078 -985 -869 -837 -814 -590 -463 -145 -603 567 -758 -2362 -894 -1073 -751 -751 -747 -936 -2016 -2150 -2178 -2956 -2422 -2022 -1911 -1687 -1595 -1421 -1323 -1312 -1295 -1295 -1094 -659 -307 -370 -375 -3 279 -519 -972 -1255 388 230 -36 55 202 202 323 -18 -31 -15 -213 -289 -152 -310 -110 -14 105 138 384 1290 1410 1709 1709 1682 1240 1271 843 677 -189 684 371 251 1179 2003 3792 1517 1143 1153 1153 1334 1383 1387 1633 2027 1614 1730 1692 1684 1740 1905 1741 1570 1709 1753 1753 1629 1655 1647
966 323 1572 1436 999 999 1150 1763 735 1108 799 1002 1203 1257 1231 1200 1178 1103 1211 1598 2039 2039 1355 1635 1712 1805 1785 1825 1330 1323 1391 1478 1849 2245 2496 2112 2098 2064 2064 2061 1662 2129 2142 2148 2180 2204 2288 2303 2285 2280 2345 2415 2494 2579 2579 2590 2654 2703 2750 2753 2796 2803 2896 2938 2921 2993 3081 3197 3293 3368 3368 3524 3694 3741 3813 3986 4046 4069 4082 4237 4274 4333 4384 4457 4479 4608 4592 4592 4691 4674 4780 4804 4717 4744 4822 4791 4828 4764 5583 5280 4764 4975 5267 5267 5196 5033 4708 4859 4661 5889 5871 5919 5883 5767 5709 5570 5403 5312 5158 5158 5034 4981 4812 4665 4537 4426 4345 4222 4132 3956 3850 3776 3694 3658 3617 3617 3563 3486 3480 3369 3284 3224 3144 3082 3111 3078 2950 2852 2822 2843 2840 2788 2788 2839 2724 2668 2731 2698 2686 2656 2597 2683 2493 2431 2423 2406 2448 2397 2397 2452 2455 2688 2706 2696 2769 2970 2772 3717 3979 3874 3845 3602 3506 3212 3212 3081 3000 2943 2914 2822 2782 2817 2705 2682 2649 2719 2683 2693 2755 2781 2788 2788 2873 2710 2644 2763 4510 4795 2779 2776 1699 1345 1138 949 962 930 1122 1122 926 915 902 753 818 754 862 821 727 710 735 558 687 732 193 193 1261 1301 1330 1377 1233 1140 1048 1020 890 911 948 893 826 817 808 796 796 718 781 775 978 1285 111 -887 -1703 -2256 -1809 -1153 -1461 -1690 -1657 -1459 -1459 -1157 -852 49 356 -103 -62 -242 130 -337 -528 -634 -456 -1506 185 -704 -704 -1036 -102 -320 -475 -589 -458 -621 -613 -398 -324 -187 -972 -16 -96 -14 -14 -139 -129 -34 -16 -70 -91 51 118 -1023 -967 955 653 651 717 692 614 614 544 342 305 221 458 520 705 575 453 847 662 1060 1656 1115 1040 1040 226 938 876 881 902 1049 1163 1143 1177 1265 1057 1285 1876 1768 1880 1880 1849 1747 1445 1252 1352 1360 1389 964 1388 1335 1281 1425 1473 1376 1698 2211 2211 2019 2119 2163 2408 2777 2121 1477 1447 1464 1639 1578 957 1428 1422 1794 1794 1541 1437 1465 1486 1492 1464 1278 1301 1726 2470 1882 1806 1771 1906 1291 1291 2600 2074 1981 1948 1481 1708 1953 2043 2495 2531 2388 2727 3038 3125 2453 2300 2300 2289 2120 1873 1850 2004 1875 2307 2022 1733 1607 1312 1230 1249 1270 749 749 350 1761 1445 1215 1193 1333 448 -104 -159 -269 943 1754 1978 397 247 247 783 1205 -329 184 -180 -389 -492 -766 -987 -1004 -962 -563 -811 -969 -1183 -1183 -1154 -1259 -1579 -1430 -703 -1141 -752 -1032 -965 -932 -976 -1332 -2135 -333 -1246 -1156 -1156 -1268 -1278 -1676 -2231 -2933 -3084 -3016 -1860 -1854 -957 -905 -494 -38 -1389 -1305 -1305 -959 209 -336 -720 -247 -191 -71 180 -912 -325 806 -43 -152 -124 214 214 101 -90 -109 -257 -522 -376 -740 -626 -227 -291 -93 -268 -442 195 1141 1557 1557 1342 1436 1178 905 601 614 677 554 905 1199 1606 2143 2708 1174 1169 1169 1229 1166 1215 1271 1329 1469 1446 1452 1478 1649 1651 1648 1536 1533 1587 1587 1597 1802 1562
959 1153 1801 1489 1100 1100 1315 871 1988 879 909 1087 1248 1393 1492 1196 1199 1179 1115 1287 1265 1265 1427 1754 2428 1682 1709 1298 1324 1045 1510 1596 1780 256 2730 2097 2086 2057 2057 2051 2049 2090 2110 2127 2153 2204 2257 2252 2249 2291 2288 2403 2460 2546 2546 2601 2623 2700 2652 2682 2721 2775 2809 2829 2877 2954 3103 3175 3277 3249 3249 3414 3680 3662 3742 3880 3946 3974 4102 4158 4187 4250 4359 4396 4391 4461 4538 4538 4610 4612 4731 4670 4679 4667 4767 4720 4791 4689 4492 4421 4381 4779 5416 5416 4936 4579 4523 5663 5869 5797 5808 5883 5847 5793 5776 5517 5430 5305 5143 5143 5002 4893 4753 4651 4521 4390 4346 4189 4113 3959 3924 3824 3723 3638 3583 3583 3519 3478 3389 3310 3255 3191 3111 3080 3104 2995 2888 2815 2788 2876 2862 2702 2702 2738 2735 2626 2615 2677 2598 2598 2629 2604 2547 2468 2431 2386 2435 2375 2375 2430 2432 2459 2634 2647 2757 2894 3384 3615 3810 3818 3749 3582 3418 3187 3187 3109 2972 2938 2916 2837 3023 2801 2796 2776 2836 2771 2757 2633 2694 2705 2727 2727 2681 2577 2555 2858 4351 4309 3480 2407 1671 1411 821 909 832 802 802 802 758 772 736 661 755 818 808 799 822 581 622 534 -332 429 662 662 904 954 913 1160 1149 1093 1034 1073 921 926 1021 943 814 808 799 737 737 685 668 753 960 999 -132 -2056 -2258 -2215 -2281 -558 -1601 -1629 -1493 -1362 -1362 -663 -290 245 464 -17 59 -161 -117 -516 -537 -92 381 -1051 6 86 86 52 -102 -168 -269 -375 -165 -242 -197 -414 -474 -250 -241 -176 -1484 -1598 -1598 25 -52 -76 42 -12 41 113 115 291 463 821 859 730 871 719 752 752 667 740 86 584 627 620 681 663 693 728 610 974 1310 466 392 392 1138 889 851 880 996 1557 1255 1141 1232 1214 1064 1331 1658 1782 1850 1850 1053 1699 1560 1328 1286 1285 1254 1385 1658 1322 1228 1515 1527 1326 1590 1828 1828 2072 1356 2089 2364 1758 1537 1457 1387 1426 1617 1858 1738 1551 1566 1949 1949 1676 1498 1564 1564 1703 1573 1811 1932 2192 1702 1556 1517 1695 978 970 970 1022 2019 1907 1868 2021 2114 1987 183 1733 2319 1522 2736 2664 2342 2124 2189 2189 2330 1992 1897 1860 2037 2009 2148 1995 1882 1505 1235 1163 1251 1334 1462 1462 1621 -57 708 1327 1356 1166 1434 1595 978 1886 1617 708 1288 292 221 221 247 -239 -504 -676 -703 -690 -408 -686 -967 -1093 -824 -876 -729 -773 -1183 -1183 -1323 -1140 -1085 -1168 -1250 -1360 -1162 -1290 -633 -1225 -1303 -1495 -1426 -1371 -1650 -1440 -1440 -1674 -1487 -1857 -2086 -2821 -3141 -3082 -2647 -993 -606 -226 -29 -1113 -1450 -1357 -1357 -1224 -818 -860 -677 -363 -343 -299 -299 -254 841 784 -53 -149 -160 116 116 -28 -300 -854 -591 -652 -865 -738 -514 -425 -328 -244 -285 -454 -334 716 1275 1275 1507 1199 1079 847 572 528 402 452 398 2101 1131 534 790 964 1023 1023 1038 1098 1155 1164 1262 1232 1351 1392 1462 1527 1487 1632 1589 1533 1518 1518 1567 1633 1539
1055 1438 2428 2212 1255 1255 1560 1811 875 743 909 1009 1119 1455 1483 1311 1324 1546 1065 1070 1127 1127 1438 2865 2074 1882 2109 1863 1376 1786 1659 1146 1665 3168 2437 2085 2059 2042 2042 2030 2020 2061 2094 2168 2209 2227 2224 2213 2215 2247 2299 2380 2492 2538 2538 2513 2557 2596 2583 2636 2679 2750 2762 2791 2839 2968 3092 3166 3180 3730 3730 3416 3545 3609 3697 3770 3865 3909 4011 4067 4135 4197 4268 4302 4329 4377 4690 4690 4519 4538 4539 4595 4629 4626 4686 4722 4740 4666 4477 4382 4219 4436 4736 4736 4747 4971 4880 6349 5618 5750 5822 5887 5823 5760 5692 5625 5506 5380 5188 5188 5017 4875 4758 4601 4479 4368 4264 4166 4107 4055 3915 3774 3711 3636 3561 3561 3539 3446 3388 3286 3173 3122 3150 3078 2990 2940 2878 2852 2847 2826 2496 2788 2788 2748 2676 2609 2634 2592 2640 2633 2625 2496 2478 2473 2443 2408 2404 2383 2383 2383 2422 2394 2581 2609 2737 3146 3448 3532 3738 3823 3523 3432 3292 3169 3169 3098 2980 2921 2975 2855 2813 2691 2869 2812 2862 2805 2706 2671 2702 2805 2767 2767 2832 2529 3314 3559 3774 3439 2925 2159 1655 616 1023 808 157 613 745 745 751 673 774 628 792 693 701 142 431 717 702 668 504 503 496 496 583 654 715 735 848 799 840 983 988 316 1035 725 884 784 777 834 834 672 674 738 747 673 -1033 -2206 -2175 -2208 -2304 -1105 -1461 -1489 -1332 -575 -575 83 77 381 435 -1044 -579 -21 -182 -488 -443 334 343 60 -252 -284 -284 -253 -215 -211 -346 -349 -188 -270 -281 -334 -409 -304 -378 -213 131 27 27 -127 -64 37 106 15 258 250 250 361 380 495 690 969 948 845 766 766 696 617 549 505 908 665 874 566 754 1160 1480 796 1364 1493 1522 1522 1537 1331 1292 1591 1345 1345 1417 1151 1340 1317 1153 1364 1642 602 1769 1769 1711 1584 1594 1277 1397 1446 1294 1293 1689 1325 1344 1308 1380 1822 1578 1800 1800 1842 1892 2281 2447 1580 1544 1469 1434 1426 1640 2 1113 1412 1382 1750 1750 1907 1446 1610 274 363 1631 1666 1751 1720 1502 1437 1418 1300 947 973 973 976 2016 1667 1566 1767 1023 2016 1981 1684 2228 2303 2465 2771 2318 2058 2098 2098 2390 1468 2106 1966 2065 1962 2139 1480 1294 1230 1216 1222 1226 1244 1202 1202 1325 1412 1447 1246 1164 1194 1209 1549 1623 1776 2096 552 660 1782 -300 -300 57 -373 -693 -741 -734 -512 -543 -701 -768 -861 -1019 -934 -1386 -998 -1151 -1151 -2233 -1202 -1187 -1970 -1456 -1376 -799 -1652 -1475 -1357 -1013 -1671 -1444 -1021 -1225 -1300 -1300 -1468 -1831 -1594 -2249 -2515 -2518 -2449 -2266 -2004 -11 -455 -1328 -1589 -1609 -1810 -1810 -1240 -1211 -853 -1498 -1014 -798 -924 -655 -675 100 483 501 209 216 153 153 -656 -668 -17 -716 -965 -987 -544 -507 -442 -413 -654 -278 -599 -437 -411 -188 -188 1096 1452 1689 831 716 1058 737 -484 -549 456 1526 523 550 774 939 939 1085 1002 1058 1033 1121 1232 1203 1281 1380 1356 1461 1534 1469 1401 1352 1352 1390 1428 1390
1215 1831 2413 2366 1518 1518 1570 1169 1003 911 960 993 1050 1132 1685 1688 1198 1281 635 1008 1148 1148 1497 2533 1609 1504 1387 1386 1975 2281 1943 1950 2071 2545 2172 2070 2049 2024 2024 2018 1996 2039 2062 2157 2188 2157 2169 2176 2203 2239 2317 2410 2439 2520 2520 2528 2516 2552 2549 2591 2629 2680 2736 2751 2840 2927 3009 3074 3308 3305 3305 3433 3480 3523 3621 3662 3851 3864 3961 4038 4054 4171 4225 4271 4292 4949 5336 5336 4523 4508 4508 4529 4552 4604 4611 4865 5006 4664 4513 4391 4196 4312 4399 4399 4150 4364 4602 5925 5332 5866 5950 5898 5812 5782 6513 6808 6401 6009 6095 6095 4961 4862 4709 4595 4467 4360 4267 4196 4104 4045 3915 3843 3711 3644 3529 3529 3486 3434 3330 3284 3207 3130 3065 3009 2950 2902 2904 2934 2944 2765 2744 2724 2724 2709 2711 2669 2583 2657 2587 2623 2554 2545 2579 2522 2499 2444 2452 2430 2430 2435 2385 2528 2596 2650 2806 3092 3226 3343 3599 3563 3463 3324 3200 3190 3190 3064 3008 2945 2859 2861 2826 2899 2875 2707 2751 2932 3084 2937 2874 2885 2921 2921 3013 3070 3553 3477 3125 2745 2318 1818 1639 1171 920 681 660 520 660 660 658 704 669 711 804 614 654 649 693 841 679 686 606 530 486 486 553 546 -419 93 626 639 753 797 908 750 886 800 852 764 773 902 902 1253 768 999 791 509 -476 -2208 -2185 -2183 -2138 -551 -512 -780 23 -70 -70 170 512 634 278 -1383 -1064 92 -37 -306 -151 34 -117 50 -109 -258 -258 -239 -143 -151 -295 -162 -217 -172 -251 -213 -406 -165 -245 -291 -77 59 59 34 -36 74 116 162 366 267 387 478 523 566 792 748 450 744 923 923 722 683 639 724 966 776 730 781 1203 1417 1448 1612 1457 1522 1398 1398 1587 1729 1655 1506 1381 1191 1222 1255 1189 1279 1204 1343 1490 1943 2027 2027 1737 1221 1687 1398 1262 1337 1320 1314 1405 1340 1227 1088 1087 1890 1898 1763 1763 1750 1814 1898 1319 1578 1484 1462 1931 1457 1490 1651 1527 1315 1357 1645 1645 1710 1696 1867 1903 1755 1797 1236 1698 1810 1623 1494 1292 953 1280 1007 1007 1730 1539 1541 1491 1518 799 1570 1636 1773 1805 2129 2498 1949 2117 2261 1745 1745 2233 2427 2291 2050 740 938 1257 1487 1260 1205 1050 1173 697 790 1012 1012 1142 1192 1372 1238 1079 1123 1187 1344 1092 1173 1310 1312 1023 2098 1244 1244 -95 -383 -682 -702 -812 -645 -577 -618 -205 -1729 -1090 -612 -702 -1439 -662 -662 -1274 -2297 -1486 110 -1384 -1679 -1524 -809 -1822 -1178 -1411 -1896 -2042 -1927 -1818 -2151 -2151 -1803 -1653 -2395 -2284 -2651 -2847 -2754 -2195 -1844 -2530 -2183 -2251 -1699 -3218 -3687 -3687 -2520 -2417 -2435 -2345 -1902 -1236 -1115 -776 -703 -523 -147 -153 445 -135 503 503 -815 -1220 -1142 -935 -1230 -1881 -248 -2116 -1724 60 -185 -472 -462 -1041 -499 -434 -434 951 2354 1744 1171 1169 -408 -434 -704 -608 -716 -657 72 450 860 2818 2818 2998 878 919 870 917 1121 1294 1432 1186 1237 1376 1365 1362 1347 1298 1298 1329 1296 1312
1455 1571 1991 1305 1674 1674 1772 985 897 878 1242 946 913 987 1249 1158 1096 1047 1041 1108 1086 1086 1945 3169 2318 1377 1314 718 1419 1406 1415 1788 1690 1920 2171 2035 2012 2011 2011 1999 2032 2050 2058 2070 2062 2035 2057 2441 2187 2202 2246 2280 2333 2353 2353 2373 2405 2459 2498 2549 2594 2661 2688 2789 2858 2917 2990 2197 3235 3269 3269 3363 3421 3482 3528 3628 3693 3775 3838 3871 3919 4011 4059 4601 4276 4530 4421 4421 4387 4399 4431 4421 4401 4506 4441 4537 5282 6636 4473 4345 4240 4211 4521 4521 4672 4069 4368 4496 6150 5895 5983 5962 6240 6995 7593 7399 8481 7475 6822 6822 5535 4825 4691 4590 4469 4357 4251 4185 4133 4036 3953 3889 3744 3633 3555 3555 3481 3412 3295 3283 3181 3120 3064 3030 2289 2962 2893 2871 2838 2797 2783 2763 2763 2706 2707 2704 2669 2728 2678 2600 2668 2628 2984 2965 2778 2453 2422 2449 2449 2571 2873 3225 3193 3187 3152 3294 3395 3550 3554 3492 3479 3488 1754 2863 2863 3175 3038 3042 2990 2911 2864 2912 2975 2824 3076 3131 3112 3013 2944 2815 2791 2791 2837 3072 3400 3256 2732 2161 1615 1409 1146 932 767 745 699 714 693 693 660 428 837 866 956 928 721 716 724 710 646 711 721 624 585 585 580 483 522 566 560 537 565 668 661 693 569 595 578 620 641 675 675 856 626 -331 363 -301 -451 199 133 -79 -105 110 -94 -37 198 258 258 337 652 300 215 53 205 -1019 253 -7 177 236 -55 -632 -235 -376 -376 -302 -114 -38 32 -66 -110 -7 -919 21 6 101 -40 -44 -69 339 339 146 -51 340 -411 409 623 -7 708 714 837 996 1086 755 1198 748 1171 1171 1200 1204 943 988 854 915 1290 1501 1506 1609 1631 1567 1742 1648 1598 1598 1481 1563 1304 1283 1167 1183 1274 1125 1152 1208 1286 1135 1297 1464 1177 1177 1016 1058 1169 1769 1686 1725 1521 1349 1349 1397 1363 1435 1736 1902 1874 1943 1943 1820 1992 1939 2206 1525 1476 2395 1600 1605 1441 1357 1311 1271 1177 441 441 405 2362 1965 1855 1713 510 542 812 1729 1449 1388 1369 1300 1292 1313 1313 1292 1289 1359 1299 1305 962 1325 1405 1501 1718 1836 1901 2375 2081 1696 1589 1589 1562 1167 1427 906 2170 2114 1650 1474 1226 880 779 668 652 671 719 719 821 -374 -561 -610 1067 1234 1431 698 456 924 376 -1041 -190 -348 -475 -475 -826 -763 113 -515 -706 -321 45 -1865 -1520 -1910 -433 -1337 -1616 -1525 -1324 -1324 -3130 -2865 -1918 -2727 -2702 -2559 -2533 -2692 -2280 -2632 -3142 -1630 -2212 -2302 -2264 -2349 -2349 -2321 -2561 -2270 -2547 -2963 -3312 -3329 -4257 -4618 -4498 -4804 -3896 -4559 -2598 -2706 -2706 -2725 -2763 -2371 -1488 -1795 -1665 -1397 -1138 -1047 -785 -249 103 -2151 -2357 -2233 -2233 -588 -1244 -1615 -1596 -1418 -1399 -659 -473 -107 -665 -1738 -490 -621 -671 -734 -607 -607 -439 -383 -359 -397 71 -616 -989 -910 -974 -843 -830 -1348 469 2034 1504 1504 496 573 622 701 789 794 829 883 975 1068 1089 1157 1326 332 1213 1213 1176 1174 1239
1313 1438 1250 1229 1568 1568 1939 946 897 912 916 950 952 950 1003 1158 1107 1068 1052 1400 1315 1315 2590 3952 2182 1798 1358 1420 1393 1403 1442 1439 1450 1438 2081 2018 1979 1955 1955 2041 2025 2032 2047 1987 2009 2066 2108 2137 2168 2199 2224 2268 2309 2323 2323 2358 2401 2413 2499 2535 2596 2633 2712 2768 2868 2938 3007 3096 3186 3268 3268 3341 3386 2842 3555 3624 3671 3729 3784 3825 3902 3937 4004 4123 4243 4276 4287 4287 4300 4318 4342 4356 4429 4455 4393 4170 5586 5947 5680 4433 4374 4598 4596 4596 4313 4393 4275 4274 6554 5923 5977 6491 7214 7874 6528 7025 7589 7282 6774 6774 5452 4971 4704 4578 4465 4357 4255 4140 4091 4012 3987 3904 3743 3640 3566 3566 3465 3428 3340 3264 3192 3132 2977 3109 3103 3003 2948 2910 2878 2784 2791 2816 2816 2740 2702 2738 2743 2709 2656 2683 2692 3172 3274 3032 3109 2670 2632 2775 2775 3023 3252 3208 3498 3335 3439 3325 3390 3408 3624 3566 3549 3469 3536 3410 3410 3305 3308 3259 3180 3052 3058 3108 3154 3119 3103 3221 3126 2907 2701 2604 2447 2447 2283 2146 2212 2324 1858 1605 1429 1152 1005 877 745 817 782 735 703 703 778 764 879 1226 -1081 -1188 1126 820 690 663 699 829 876 972 961 961 874 712 661 565 562 546 641 598 353 644 565 537 533 518 632 726 726 674 684 241 24 -1226 -368 361 322 392 271 246 269 367 466 407 407 571 406 144 26 -4 875 367 311 290 162 194 294 164 -134 -241 -241 14 -56 -266 -27 -19 -64 -105 -101 -523 101 61 80 79 70 265 265 239 173 447 568 707 543 681 734 780 858 958 770 1296 1171 1184 1203 1203 1275 1463 1196 1002 1326 1380 1402 894 208 1717 1703 1594 1670 1773 1738 1738 1692 1384 1280 1194 1209 1165 1153 1222 1153 1171 1226 1313 1372 1489 1657 1657 1451 1077 962 1476 1504 1617 1345 1252 1360 1433 1364 1436 1688 1981 1687 1997 1997 2070 2050 1985 2495 1586 1675 2339 1829 1653 1509 1384 1289 1313 1328 1065 1065 1703 1615 1716 1722 1801 576 745 1389 1691 1470 1356 1380 1405 1383 1178 1178 1195 1214 565 1337 1158 1216 1229 1273 1338 1423 1800 1754 1948 1999 1749 1596 1596 1272 1297 793 620 587 1844 1674 1557 1256 933 768 665 584 677 711 711 858 992 -940 -627 1139 754 1138 -447 -344 -102 1632 673 -178 -383 -912 -912 -2195 -931 -820 -1033 -776 -1984 -1935 -1354 -2219 -2148 -917 -1234 -1628 -1650 -1317 -1317 -1498 -1500 -2320 -2262 -2882 -2902 -3053 -1550 -2979 -3148 -3014 -2525 -2597 -2450 -2715 -2767 -2767 -2848 -2734 -2779 -3385 -3469 -3553 -3417 -4563 -4612 -4505 -4503 -4421 -4456 -2985 -2828 -2828 -3775 -2305 -2342 -1773 -1650 -1086 -1543 -1372 -1214 -1072 -489 -744 -867 -1043 -567 -567 -559 -945 -882 -1610 -1722 -1915 -1271 -1150 -1117 -1133 -650 -552 -726 -796 -826 -845 -845 -790 -591 -601 -704 -654 -214 -979 -939 -985 -960 -898 -722 670 791 387 387 357 511 467 460 580 630 723 766 899 918 1000 1008 1167 1201 1105 1105 1145 1130 1123
1350 1537 1575 1099 1181 1181 1400 917 880 971 954 977 974 973 1031 1257 1254 1085 1081 1161 1345 1345 1605 3261 2899 1338 1354 1400 1405 1424 1410 1427 1445 1508 808 2171 1953 1917 1917 2022 2013 1996 1940 1957 2034 2066 2111 2145 2171 2193 2209 2245 2239 2296 2296 2345 2382 2439 2495 2534 2559 2624 2698 2785 2871 2929 3202 3155 3279 3284 3284 3296 3385 3446 3522 3607 3643 3691 3763 3820 3903 4015 4070 4148 4196 4313 4296 4296 4210 4243 4254 4399 4367 4348 4282 4403 5220 5337 5296 4819 4759 4860 4762 4762 4777 4620 4685 4593 6569 5913 6286 6257 6360 6514 6970 7496 8249 7841 6995 6995 5137 5067 4689 4552 4480 4368 4262 4162 4080 3999 3938 3874 3768 3719 3587 3587 3547 3477 3391 3297 3240 3178 3197 3111 3084 2997 2978 2949 2936 2882 2847 2887 2887 2775 2821 2720 2722 2700 2784 2802 2984 3129 3019 2889 3010 2732 2757 2868 2868 3070 3416 3523 3592 3501 3538 3575 3566 3652 3529 3560 3698 3798 3831 3927 3927 3927 3788 3723 3575 3421 3390 3277 3388 3360 3301 3184 2869 2611 2664 2240 2237 2237 2176 2044 1922 1814 1634 1519 1165 909 860 824 733 746 773 761 765 765 779 804 951 1381 -1228 -1389 747 989 719 707 792 989 885 1216 121 121 1037 976 448 716 583 534 541 571 576 560 572 625 522 -49 586 -45 -45 608 615 -195 -959 -442 -93 505 552 569 563 515 584 551 616 261 261 416 279 72 -9 585 413 428 303 -140 272 328 348 376 205 171 171 137 75 116 -9 63 -40 -71 -81 174 142 103 148 -24 327 362 362 218 193 261 371 -124 480 661 742 897 963 741 1133 1202 1207 1301 1477 1477 1383 711 1325 1387 1486 1295 1306 2029 707 1879 2115 2324 955 1714 1777 1777 1700 1541 1517 1602 1364 1278 1138 1216 1167 1189 1173 1239 1328 1320 1075 1075 1326 1359 1334 1378 1427 1560 1453 1406 1266 1434 1377 1284 1466 1568 1763 2012 2012 2046 2245 1592 1822 1696 1930 1985 2150 1919 1625 1339 1350 1313 1292 1336 1336 1339 1489 1705 1638 1345 1994 1987 2022 1751 1565 1392 1378 1391 1370 1357 1357 1346 1255 1246 1170 914 1175 1187 644 1212 1328 1449 1632 1814 1861 1445 1441 1441 1321 1046 1549 602 1615 1514 1348 1237 1101 938 1127 617 734 837 780 780 973 586 1033 887 921 1346 972 -362 -395 255 1684 916 -23 -177 -770 -770 -2179 -718 -1298 -1284 -1259 -2750 -2790 -2155 -2167 -1996 -628 -1886 -1909 -2402 -2362 -2362 -2220 -2098 -1933 -3173 -3185 -3250 -3248 -2891 -3766 -5084 -4142 -4327 -5376 -3854 -3808 -3876 -3876 -4044 -4578 -4567 -4049 -3648 -3377 -4176 -3589 -4530 -4516 -4452 -4476 -4361 -3174 -3160 -3160 -2612 -2327 -1912 -1594 -1702 -1477 -1449 -1545 -1274 -864 -1049 -1105 28 -415 -2393 -2393 -2512 -993 -1803 -2104 -1314 -1729 -1548 -1450 -1496 -1384 -1004 -835 -762 -786 -5 44 44 -819 -875 -810 -842 -871 -892 -760 -1002 -1020 -971 -382 -355 -86 332 296 296 331 184 278 242 419 541 666 632 778 876 917 941 1084 1120 1090 1090 1123 1099 973
1417 1261 1478 1075 985 985 853 950 969 1104 970 981 1000 1118 1267 1345 1318 1284 1276 1193 1287 1287 1648 3067 2953 1349 1363 1406 1405 1410 1464 1469 1498 1615 1817 1853 2029 1968 1968 1987 1982 1982 1983 2008 2024 2076 2102 2130 2160 2187 2208 2226 2217 2273 2273 2361 2402 2433 2464 2490 2559 2599 2685 2775 2864 2883 3154 3670 3143 3231 3231 3307 3370 3419 3484 3571 3628 3688 3708 3773 3836 3965 4006 4035 4044 4125 4138 4138 4150 4163 4215 4406 4264 4265 4217 4226 4641 4394 4658 5143 5148 5240 5300 5300 4963 4896 4653 5768 4951 5982 6115 7592 6593 6919 7134 7800 7804 6713 6488 6488 6003 5270 4796 4542 4460 4366 4283 4278 4101 3999 3907 3856 3856 3711 3653 3653 3570 3523 3444 3359 3382 3188 3190 3152 3124 3082 3028 2944 3023 2968 2848 2856 2856 2835 2830 2787 2766 2767 2830 2789 2894 2803 2734 2739 2884 2908 3016 3245 3245 3569 3718 3704 3823 3818 3520 3595 3713 3654 3633 3743 3772 3840 4075 4769 4769 5311 4888 5271 4801 4335 4146 4068 3916 3616 3358 2436 2421 2398 2447 2384 2298 2298 2143 1989 1986 1607 1397 1343 1153 989 882 786 769 764 748 751 813 813 808 1039 940 1010 1326 1065 1180 1156 917 855 958 1019 1071 1154 1077 1077 949 909 901 790 553 535 605 509 612 573 595 696 581 618 566 -492 -492 504 145 -1027 -235 514 441 500 541 1088 1224 872 -854 622 468 382 382 300 132 69 146 476 537 474 419 381 436 475 612 506 341 -1004 -1004 125 192 60 20 37 82 -111 162 239 281 112 211 16 65 308 308 529 359 373 362 631 236 913 853 1121 1070 1105 1329 683 1245 1421 1384 1384 1588 1035 1404 2092 1653 1486 1722 1849 1660 1633 1795 1810 1592 1552 1655 1655 871 1944 29 143 1461 1407 1391 1447 1161 1291 1210 1186 1415 1121 1375 1375 1326 1441 1344 1334 1291 1317 1390 1456 1022 590 1517 1488 1468 1483 1988 1998 1998 2051 1435 1332 1550 1723 1835 1972 1882 1810 1689 1446 1403 1424 1328 1267 1267 1368 1489 1728 1572 1606 1702 2020 2039 1122 654 1628 1417 1465 1363 1314 1314 1362 1286 1238 1241 1196 1157 1234 1156 1203 1436 1523 1588 1955 2068 748 924 924 976 858 1237 1406 1296 1080 1067 1009 991 830 894 922 -153 765 815 815 766 329 576 817 998 1038 1412 1807 1455 1383 -160 -371 -866 -1007 -968 -968 -1066 -1051 -1131 486 -724 -1930 -2571 -1039 -1539 -1684 -2145 -2500 -3161 -3298 -3683 -3683 -3658 -3282 -2414 -3434 -2835 -2345 -4064 -4580 -4488 -5059 -6317 -6116 -5865 -5907 -5595 -5017 -5017 -5785 -6218 -5685 -5615 -5586 -5369 -4607 -3495 -3893 -4744 -5630 -5629 -3650 -3240 -2640 -2640 -2726 -2502 -2296 -2279 -2016 -1677 -1849 -1739 -1474 -857 -1142 -1508 -1108 -871 -2453 -2453 -2883 -1527 -1921 -2041 -1784 -1712 -1680 -1689 -1551 -1398 -1324 -1045 -899 -445 -582 -459 -459 -725 -839 -895 -1073 -1153 -1200 -1088 -1186 -873 -840 -634 -183 -112 12 95 95 31 63 109 125 325 438 496 604 746 766 896 947 954 1003 1069 1069 1071 1054 1081
1886 1290 1296 1359 1155 1155 867 1059 1721 1630 1307 1165 1013 1112 1442 432 1131 1049 1385 1595 1160 1160 1567 2182 1338 1318 1364 1411 1446 1442 1419 1449 1539 1678 1779 1792 2252 1916 1916 1949 1953 1945 1967 1995 2761 2127 2082 2115 2136 2424 2314 2226 2249 2289 2289 2344 2338 2409 2439 1914 2503 2570 2683 2713 2800 2860 3046 2214 3196 3221 3221 3285 3310 3383 3453 3531 3579 3630 3708 3742 3801 3861 3911 3963 4002 4049 4104 4104 4121 4149 4146 4150 4193 4192 4137 4108 4146 4115 4378 4784 5291 4784 5758 5758 5329 5337 4890 5251 4851 6094 6600 6688 6553 6749 7180 7757 7613 7173 6905 6905 5892 5163 4951 4570 4493 4400 4476 4243 4045 3931 3837 3783 3717 3714 3599 3599 3579 3509 3506 3360 3294 3230 3204 3173 3145 3116 3070 3042 2994 2952 2971 2924 2924 2885 2852 2832 2787 2821 2783 2768 2755 2733 2735 2958 3068 3312 3435 3988 3988 4406 4317 4305 4295 4345 3887 3729 3763 3668 3520 3833 3880 4045 4726 4552 4552 4304 4587 5189 4680 4155 3793 3760 4504 4052 3119 2461 1941 2353 2367 2264 2125 2125 1977 1906 1870 1617 1419 1294 1009 901 924 885 882 901 781 847 799 799 866 942 806 896 891 963 924 1008 980 1059 839 564 125 673 668 668 713 754 861 817 601 560 531 533 601 607 730 800 811 708 644 502 502 -130 -837 255 1073 965 599 637 557 -1023 -1026 1059 -614 692 413 279 279 361 677 380 391 579 532 578 504 451 649 -132 832 538 417 347 347 340 102 106 45 39 101 -34 229 131 359 70 262 -70 -48 312 312 186 151 176 528 736 876 625 959 -37 1213 1112 652 1245 1320 1379 1469 1469 1604 1248 1274 1394 1537 1637 1622 1679 1712 1612 1642 1466 1440 1463 1114 1114 1531 1727 172 275 1505 1443 1482 1465 1371 1233 1263 1277 1320 1331 1400 1400 1375 1423 1288 1263 1337 1402 1396 1373 1381 1140 1583 1457 1505 1416 1489 1896 1896 1918 1553 1420 1712 1663 1800 1879 1913 2105 1745 1654 1518 1412 1402 1448 1448 1333 1414 1733 1574 1628 2154 2067 2285 1312 1185 1530 1502 1519 1438 1377 1377 1304 1256 829 1037 1433 1237 1236 1230 1272 1453 1586 1896 2188 2236 1745 1473 1473 945 840 814 1155 1066 956 914 801 963 1076 1156 1028 995 677 766 766 321 388 412 730 898 1032 1579 1487 1320 1038 942 -647 -1185 -1292 -1285 -1285 -384 -1619 -1528 -1945 -2225 -2206 -1490 -1826 -2363 -3199 -4077 -4673 -4187 -4153 -4288 -4288 -4546 -4676 -4912 -5281 -5076 -5939 -5530 -6008 -6174 -6408 -6524 -6379 -6474 -6513 -6382 -6368 -6368 -6429 -6493 -6388 -6124 -6056 -5999 -5569 -5289 -5301 -4823 -3773 -3753 -3892 -3622 -2974 -2974 -2994 -2491 -2984 -2441 -2431 -1576 -2425 -2237 -1300 -2967 -1507 -1728 -2512 -2427 -2885 -2885 -1509 -1999 -2125 -2090 -1847 1038 -1312 -1759 -1797 -1711 -1650 -1082 -830 -743 -707 -669 -669 -974 -1085 -1062 -996 -1035 -1214 -2306 -1976 -1117 -957 -318 -337 -201 -245 -167 -167 -75 -150 -48 -18 261 294 460 615 705 722 772 1029 903 978 988 988 1005 1143 249
1644 1311 1317 1681 2113 2113 422 1486 2327 1530 1357 1172 1052 1056 1068 1055 1051 884 1145 1612 1136 1136 2335 2424 1324 1364 1391 1523 1401 1426 1435 1434 1950 1938 1662 1868 1875 1911 1911 1915 1923 1937 1948 1950 2193 2044 2067 2087 2232 2484 2191 2215 2245 2292 2292 2311 2322 2350 2369 2432 2494 2555 2635 2713 2758 2789 2859 3074 3109 3261 3261 3313 3285 3369 3433 3514 3577 3573 3627 3686 3731 3824 3545 3939 3976 4018 4056 4056 4079 4128 4104 4102 4125 4133 4475 4812 3827 4004 4032 4428 4767 5230 5477 5477 5435 5219 4596 5117 5080 6171 6120 6058 6296 6556 5944 6117 7625 6753 6365 6365 5907 5366 4837 4556 4502 4474 4466 4331 4119 3939 3853 3780 3786 3680 3630 3630 3541 3471 3470 3423 2609 3257 3203 3174 3138 3101 3085 3058 3019 3031 2923 2919 2919 2951 2893 2873 2861 2836 2838 2837 2817 2783 2946 3203 4159 3617 4002 4119 4119 4624 4764 4534 4693 4129 4295 3947 3796 3871 4070 4171 4329 4296 4997 5540 5540 4787 5045 5080 4582 4410 4079 3594 3323 3151 3278 2659 2417 2389 2198 2131 2123 2123 1883 1829 1760 1640 1565 1395 1191 1101 1037 976 970 889 826 900 863 863 923 806 797 785 806 874 843 807 834 1000 851 559 569 -162 627 627 539 655 829 632 755 589 536 606 635 607 641 792 768 713 554 448 448 281 -548 -1415 -1028 1168 834 1024 -72 -987 -944 1181 815 557 702 797 797 676 745 678 592 -27 674 560 515 -247 655 -308 520 650 461 352 352 -780 31 174 -56 29 8 131 390 375 359 494 629 653 529 327 327 433 786 595 343 481 934 883 1077 1052 1170 920 1254 1189 1410 1477 1523 1523 1400 1328 1327 1358 1437 1472 1625 1625 1585 1557 1467 1460 1435 1482 486 486 1509 1820 1572 1875 1509 1387 1446 1259 1583 1541 1380 1340 1412 1374 1436 1436 1282 1374 1374 1296 1325 1242 878 1405 1666 1964 1971 1506 1424 1469 1299 1607 1607 1399 1365 1321 1264 1619 1422 1796 2077 1888 1894 1800 1764 1713 1945 1004 1004 1373 1331 1599 1580 1854 1996 1915 2021 983 966 1692 1679 1590 1548 1410 1410 1465 1085 1557 378 387 1483 1504 1695 1563 1743 1883 2005 1926 973 1647 1822 1822 898 864 933 1179 932 836 807 933 1031 1122 978 -95 253 1441 456 456 420 457 451 494 507 755 945 985 982 1012 1045 401 -147 -1575 -1261 -1261 -1910 -2170 -2327 -1194 -2710 -2803 -2828 -2479 -2457 -3687 -5676 -5696 -5641 -5030 -5102 -5102 -5665 -5721 -6040 -6338 -6392 -6492 -6465 -6541 -6463 -6485 -6499 -6562 -6507 -6511 -6413 -6410 -6410 -6495 -6548 -6455 -6405 -6355 -6307 -6355 -5804 -6637 -6155 -5307 -5224 -4867 -3953 -5320 -5320 -3027 -2909 -2896 -2406 -3408 -2045 -2541 -2187 -2931 -1855 -2313 -1919 -1993 -1331 -2182 -2182 -2801 -2599 -2171 -2062 -2105 -1894 -2005 -1959 -1778 -1733 -1761 -950 -686 -779 -820 -796 -796 -986 -1251 -1144 -1143 -1348 -1578 -1505 -1286 -1250 -1308 1605 1010 845 -408 -381 -381 -241 -164 -176 -127 63 272 452 546 651 714 748 829 925 915 1027 1027 1062 1272 1310
1823 1469 1392 2185 1605 1605 917 1322 1153 1056 1044 1024 1069 1052 1047 1023 1053 1042 1077 1067 1080 1080 2451 1573 1479 1401 1873 1748 1440 1458 1450 1614 2321 1994 1774 2099 1855 1858 1858 1897 1925 1932 1937 2001 2005 2031 2029 2056 2086 2155 2181 2220 2255 2280 2280 2295 2314 2333 2381 2434 2521 2561 2615 2671 2723 2804 2886 1435 3097 3170 3170 3202 3241 3324 3503 2517 3543 3558 3568 3650 3695 3777 3850 3958 3955 4036 4046 4046 4059 4067 4047 4508 4063 4065 5057 4447 4146 4075 3976 4360 4727 4832 4941 4941 5618 5547 4929 5813 5726 6412 6149 5167 5102 6495 6933 7172 6317 6612 6196 6196 5801 5445 5110 4806 4573 4632 4634 4488 4223 3928 3859 3788 3720 3665 3595 3595 3549 3521 3422 3402 3315 3266 3242 3191 3160 3064 3099 3083 3087 3046 3007 2948 2948 2939 3014 3053 2930 2885 2868 2841 2825 2869 3126 3932 5806 3949 4782 4503 4503 4582 4681 4649 4635 4599 4485 4183 4149 4314 4355 4410 4362 4509 5037 4779 4779 4323 4974 3880 3678 3276 3043 2856 2930 1690 2978 2585 2503 2334 2276 2177 2068 2068 2047 1888 1780 1505 1617 1569 1331 1168 1203 1127 1045 1011 988 1002 1094 1094 957 849 779 733 732 646 744 752 807 794 906 622 582 -127 607 607 581 607 709 554 555 629 632 697 655 804 691 560 773 729 581 362 362 309 -1130 -1449 -1424 594 824 907 1097 1260 1388 996 831 951 1099 863 863 745 226 772 739 769 769 631 618 514 489 610 632 400 298 177 177 176 337 208 -82 204 179 -1216 -1139 500 448 515 648 860 681 552 552 792 -267 187 778 713 726 977 1000 1171 1139 1259 1141 1246 1222 1391 1499 1499 1394 1569 1765 1650 1814 1565 1627 1582 1472 1494 1424 1448 1451 1472 1509 1509 1551 1481 1522 1604 1467 1359 1343 1359 1413 1713 1654 1351 1405 1392 1438 1438 1419 1333 1286 1319 1291 1128 1357 1402 1520 1791 1588 1430 1350 1359 1500 1374 1374 2126 1386 1525 1593 1667 1973 1931 1877 2057 1902 1947 1964 2219 1980 1501 1501 1413 1550 1510 1845 1786 1906 1946 2184 2220 2113 1945 1747 1806 1669 1542 1542 1551 1487 1700 1604 1415 1468 429 1612 2351 1763 1411 1698 427 1540 1656 1591 1591 1531 801 810 1117 975 939 953 1087 926 961 1023 1003 805 725 535 535 543 977 584 573 478 482 180 -71 -187 143 647 335 -1034 -1585 -1754 -1754 -1585 -2756 -2571 -3110 -3095 -3385 -3238 -3095 -3776 -4783 -5959 -6062 -5854 -6031 -5597 -5597 -6436 -6618 -6937 -6346 -6762 -6363 -6294 -6355 -6406 -6377 -6427 -6538 -6480 -6398 -6531 -6470 -6470 -6445 -6389 -6436 -6536 -6380 -6467 -6402 -5660 -6438 -6219 -6137 -5778 -5464 -4773 -3824 -3824 -3620 -3645 -3525 -3159 -2649 -2180 -3205 -2964 -3386 -3611 -2581 -2536 -2991 -2938 -3225 -3225 -3293 -2509 -2334 -2254 -2238 -2015 -2117 -2005 -2031 -1910 -1883 -899 -867 -1073 -1113 -1026 -1026 -935 -1078 -921 -1091 -1294 -1530 -1726 -1724 -1657 -1639 -1431 -1275 -1008 -783 -773 -773 -602 -621 -521 -618 -460 282 1644 578 643 795 741 857 869 949 1031 1031 1303 1698 1695
1729 1401 1140 1554 1527 1527 1103 1162 1048 1063 1046 1047 1079 1080 1050 1060 1071 1053 1047 1048 1230 1230 374 1736 1626 2189 1700 1507 1446 1458 1428 1422 1492 2418 2195 1803 1820 1975 1975 1879 1863 1905 1927 1974 1999 1985 2003 2035 2085 2119 2195 2225 2267 2269 2269 2273 2311 2384 2399 2473 2542 2585 2665 2681 2728 2807 2912 2999 3029 3093 3093 3152 3208 3310 3399 3628 3452 4007 3520 3583 3635 3706 3759 3754 3929 4016 3084 3084 4008 3900 3863 5359 4043 4200 4807 4402 4285 4008 3943 4446 4854 4778 4524 4524 4661 4927 4868 5600 6446 5458 6316 6139 6271 6735 6930 6303 6234 6680 6293 6293 4455 5649 5495 5001 4734 4543 4721 4183 4774 3959 3864 3790 3722 3658 3617 3617 3545 3506 3396 3373 3323 3259 3255 3265 3183 3526 3160 3140 3092 3050 3046 3009 3009 3003 3054 3007 3049 3044 2963 3001 3062 3143 3302 4806 6639 4612 5182 5008 5008 4894 5140 4176 4690 4545 4542 4540 4514 3716 4317 4209 4090 3954 3915 4052 4052 4400 4233 2787 2684 2470 2576 2586 2701 2794 2720 2508 2474 2409 2288 2169 2099 2099 2096 2024 1988 1884 1795 1617 1489 1365 1319 1124 1050 1002 930 1051 1178 1178 944 917 968 812 730 914 1005 890 934 818 847 755 730 593 481 481 534 533 533 560 602 751 769 782 759 821 719 809 823 634 592 432 432 480 -420 -617 -709 -513 497 836 597 1105 1131 978 983 382 -776 1167 1167 770 857 782 885 -30 864 663 676 484 383 393 451 436 389 234 234 222 208 175 269 308 302 49 -43 502 518 602 299 -862 898 877 877 876 899 813 863 775 180 935 1007 366 1027 1344 916 1315 1145 1257 1416 1416 1551 1478 1311 1388 1872 1674 1668 1540 1552 1519 1447 1438 1474 1379 1426 1426 1454 1443 1459 1510 1447 1394 1338 1446 1738 1675 1494 1400 1403 1414 1446 1446 1377 1381 1437 1218 1347 1388 1534 1498 1655 1639 1527 1344 1011 1359 1409 1735 1735 2162 1414 1359 1672 1753 1743 1960 2173 1786 1714 1857 2314 2341 1238 1719 1719 1569 1477 1901 2008 2095 2067 2016 2141 2164 2197 2083 1930 1893 1730 1618 1618 1696 1806 192 352 1697 1719 1485 2146 1816 1735 1470 1367 1182 1340 1439 1708 1708 1109 903 753 799 176 205 1014 1101 1532 1255 1208 1070 898 616 784 784 1124 776 1028 1088 940 167 -1541 -228 -828 -1021 -758 1 -2159 -2532 -3203 -3203 -3108 -3279 -3444 -3772 -4829 -3493 -4234 -4406 -5193 -5794 -5885 -6018 -6649 -6673 -6860 -6860 -6890 -6925 -6971 -6983 -7134 -7069 -7005 -6104 -6353 -6366 -6520 -6572 -6574 -6618 -6641 -6302 -6302 -6530 -6518 -6574 -6627 -6565 -6442 -6347 -6285 -6447 -6364 -6392 -6166 -5951 -5530 -4492 -4492 -4197 -3977 -3317 -3945 -2896 -2605 -3052 -3365 -3666 -3602 -3780 -3416 -3387 -3424 -3260 -3260 -3404 -1820 -1936 -2396 -2395 -2352 -2144 -2126 -2088 -1935 -2002 -1320 -1269 -1218 -1317 -1319 -1319 -1293 -1105 -1208 -1396 -2584 -1586 -1901 -1880 -1848 -1775 -1619 -1415 -1223 -1148 -1075 -1075 -1023 -928 -661 -1139 -1056 756 1095 678 660 707 791 791 818 991 1043 1043 1307 1389 287
1535 1280 1366 1367 1735 1735 1117 1118 1417 1109 1128 1129 1124 1065 1081 1072 461 1104 1050 1581 1401 1401 1086 1125 1361 1873 2288 2175 1447 1423 1411 1389 1716 2035 1774 1790 1815 792 792 945 1731 1901 1901 1931 1946 1953 1989 2060 2085 2116 2179 2173 2199 2242 2242 2288 2348 2381 2446 2509 2539 2579 2706 2757 2739 2784 2875 2914 2963 3021 3021 3084 3147 3237 3294 3332 3418 3411 3507 3590 3547 4298 4329 4366 3816 3923 3976 3976 3976 3993 4539 4603 4533 4322 4249 4299 5849 4180 3909 4445 5212 5091 4654 4654 4693 4485 4778 5884 6449 5195 6531 6088 5559 6841 6367 5678 6761 6505 6034 6034 5871 5828 5598 5072 4511 5489 5293 4707 4084 3882 3844 3761 3702 3678 3597 3597 3546 3482 3433 3415 3326 3285 3254 3232 3191 3179 3188 3155 3104 3053 3067 3062 3062 3032 3030 3009 3234 3054 3301 3255 3354 3281 3719 4951 4976 4823 5092 4554 4554 3611 4320 5384 4948 4826 4807 4453 4441 3836 4235 3814 3645 3660 3000 3536 3536 3658 4007 2872 2600 2530 2484 2541 2468 2515 2496 2520 2458 2443 2479 2427 2351 2351 2307 2195 2021 1961 1907 1715 1629 1604 1295 1230 1226 1121 1126 1592 1827 1827 1033 997 872 729 722 789 1092 916 870 822 834 866 707 770 590 590 611 621 579 579 612 432 1008 366 387 751 774 776 828 656 694 632 632 491 45 -260 41 -510 389 953 896 830 291 -155 1000 1039 1162 915 915 766 878 846 830 -90 704 741 760 489 393 414 517 412 468 362 362 246 173 176 236 340 318 390 504 565 573 787 895 611 892 928 928 1214 1112 832 832 519 838 889 976 1107 775 1166 1300 1080 1302 1272 1531 1531 1406 1287 1328 1627 598 1711 1615 1587 715 1500 1478 1538 1494 1470 1419 1419 1411 1391 1433 1517 102 1565 1439 1542 1530 1387 1408 1366 1416 1517 -28 -28 1691 1389 1326 1326 1388 1332 1316 1407 1468 1614 1771 1458 1460 1378 1482 1920 1920 1521 1384 1506 1690 1730 1852 2070 2610 1864 1791 2561 2282 1877 1447 1708 1708 1687 1701 2112 2068 2110 2173 2118 1772 2424 1763 273 2020 1851 1675 1647 1647 1828 253 -600 1347 1704 1875 2122 2074 1785 1540 1370 1301 1357 1286 1548 815 815 182 884 972 217 221 211 397 1544 1395 1453 1203 912 771 792 1187 1187 1012 809 1323 1378 1406 693 169 -598 -1395 -1597 -1121 -1278 -2849 -3461 -3775 -3775 -3479 -3407 -3347 -3628 -4397 -4550 -5503 -5797 -6154 -6438 -6816 -6677 -6676 -6888 -7136 -7136 -7033 -6956 -6989 -7229 -7279 -6679 -6250 -6330 -6093 -6229 -6346 -6491 -6576 -6523 -6596 -6585 -6585 -6461 -6568 -6538 -6577 -6660 -6502 -6336 -6419 -6435 -6321 -6441 -6426 -6220 -5895 -5327 -5327 -4711 -4388 -4126 -4276 -3552 -3844 -2971 -3681 -3604 -3266 -3828 -3875 -3763 -3459 -2883 -2883 -2448 -2299 -2420 -2376 -2347 -2295 -2231 -2193 -2109 -2659 -1938 -1672 -1547 -1547 -1622 -1442 -1442 -1509 -1521 -1542 -2209 -1843 -1956 -2065 -1992 -1902 -2609 -1615 -1443 -1233 -1255 -1220 -1220 -1082 -1107 -1182 -1151 -437 1374 788 548 598 628 800 909 997 1065 1355 1355 1167 1340 1363
1313 1271 1296 1276 1470 1470 1390 1085 1132 457 348 894 1380 1058 1097 1072 1079 1070 1169 1689 1602 1602 1069 1023 1256 1600 1795 1733 1527 1474 1524 1834 1685 1653 1443 1845 2570 1751 1751 1761 1771 1880 1841 1918 1932 1944 1956 2012 2166 2503 2425 2197 2263 2271 2271 2306 2370 2454 2506 2492 2495 2568 2623 2633 2684 2751 2798 2868 2942 2998 2998 3026 3107 3182 3242 3304 3353 3378 3415 3483 3504 4541 4832 4741 3832 3857 3903 3903 3858 3943 3615 4062 4056 4320 4113 4013 4049 4614 4124 4021 4493 5181 5422 5422 4532 4686 4995 5695 6078 5262 6371 6109 6155 6495 5860 6662 6603 6400 6224 6224 5989 5583 5965 4987 4650 4447 4357 4152 3921 3820 3840 3817 4089 3674 3553 3553 3508 2824 3459 3408 3371 3303 3282 3261 3175 3206 3172 3166 3117 3113 3097 3389 3389 3079 3051 3015 3112 3094 3188 3390 3479 3329 3664 4384 4543 4350 4826 4919 4919 3561 3871 5542 5221 4920 4640 4307 4064 3879 3748 3720 3368 3184 3195 3273 3273 3328 3301 3377 2604 2591 2563 2586 2537 2556 2531 2521 2502 2489 2514 2483 2439 2439 2422 2291 2237 2127 2028 1945 1839 1649 1489 1381 1311 1130 1322 1884 1998 1998 1064 930 848 1085 719 608 626 862 764 709 732 721 706 712 811 811 633 617 590 605 679 832 647 453 623 509 960 907 710 645 729 808 808 366 473 365 -1261 -991 454 1141 958 882 1126 826 901 853 152 -94 -94 798 864 870 864 953 801 775 852 542 521 467 523 377 -1173 -954 -954 353 -15 283 232 319 400 377 525 -941 446 723 1015 1105 992 1156 1156 -559 -633 1172 944 926 768 875 1065 1037 1130 1066 1107 1229 1083 1281 1340 1340 1294 1270 1488 1455 625 1422 1454 605 1466 1489 1511 1458 1510 1615 1570 1570 1433 1425 1391 1492 1599 1427 1384 1353 1458 350 1458 1335 1262 1249 138 138 1510 1545 1508 1574 498 1129 1319 1431 1385 1417 1647 1530 1743 1539 1438 1456 1456 1416 1583 1662 1670 1672 1838 1496 2793 2380 2411 2297 2046 1824 1883 2933 2933 2360 1791 2134 2146 2259 2489 2340 2408 2357 2235 304 1750 1919 1708 1679 1679 1275 1823 2196 1857 2024 2047 1981 1869 1879 1323 466 1373 1336 1431 1393 947 947 961 928 1273 722 227 -43 1319 1622 1430 1539 1423 1325 1454 1236 1126 1126 1057 1587 1516 1059 1240 885 599 -335 -1147 -1670 -563 -2649 -3450 -3819 -4439 -4439 -4203 -2782 -3828 -4097 -4713 -5834 -6232 -6572 -6846 -6957 -6887 -6933 -6949 -7020 -7180 -7180 -7185 -7112 -7168 -7157 -7326 -7369 -6437 -6190 -6290 -6516 -6647 -6317 -6220 -6442 -6617 -6763 -6763 -6570 -6551 -6669 -6655 -6652 -6522 -6553 -6554 -6464 -6391 -6313 -6521 -6357 -6270 -5565 -5565 -4954 -4937 -4733 -4693 -4809 -4331 -4179 -4274 -4116 -4198 -4011 -4157 -3802 -2748 -2638 -2638 -2534 -2537 -2581 -2512 -2491 -2427 -2420 -2343 -2230 -2137 -2156 -1926 -2095 -1913 -1908 -1817 -1817 -1820 -1677 -1999 -1989 -2073 -2369 -2212 -1894 -2094 -1806 -1578 -1422 -1376 -1336 -1366 -1366 -1300 -1159 -1208 -832 2396 346 -466 763 663 624 742 1042 1253 996 1138 1138 1231 1227 1271
1377 1343 1196 1207 1374 1374 1465 1315 1189 318 358 477 1422 1400 1215 1042 1061 1052 1047 1571 1298 1298 1103 1010 1058 1411 1350 1677 1472 1456 1474 1418 1821 877 1872 2923 2105 1740 1740 1774 1770 1856 1866 1904 1913 1935 1940 1924 1899 2014 1958 2168 2249 2315 2315 2339 2384 2903 2475 2465 2515 2552 2597 2647 2680 2756 2804 2853 2948 2997 2997 3051 3057 3144 3202 3250 3322 3336 3370 3474 3671 4381 4497 4795 4079 3772 3777 3777 3806 4083 3569 4012 4025 3920 4248 5317 5032 4139 4072 3997 4214 4192 4835 4835 4916 5253 4797 4881 5940 4551 5650 5917 5950 6724 5945 6642 6484 6370 6370 6370 6207 6043 5787 4384 4641 4459 4205 3989 3867 3793 3824 3790 4434 5040 3953 3953 3557 3513 3463 3493 3446 3990 4741 3866 3195 3181 3160 3163 3152 3114 3122 3220 3220 3546 3395 3324 3193 3100 3287 3420 3497 3361 3689 4206 4246 4326 4825 5568 5568 6597 6290 6092 5444 4952 4516 4301 4044 3893 3634 3371 3135 2788 2792 2793 2793 2751 2992 2955 2836 2560 2573 2596 2617 2598 2564 2565 2597 2549 2586 2542 2504 2504 2629 2646 2434 2185 2011 1899 1802 1763 1617 1494 1252 1343 887 2445 1512 1512 1049 963 989 1014 1074 817 1267 871 809 875 834 797 832 1094 821 821 804 834 863 970 979 972 909 1025 1052 1081 1119 1070 811 733 751 792 792 722 302 -1233 -1454 -1543 -744 1226 1015 758 982 611 816 850 -756 -812 -812 791 802 824 751 732 731 -86 -653 304 437 445 510 142 -131 570 570 341 229 263 264 315 491 501 513 665 823 -194 -188 1153 942 1177 1177 -177 -489 1274 771 1020 850 776 863 976 1149 1065 1107 1187 1225 1292 1265 1265 1193 1263 1301 1428 1564 1487 1532 867 1233 1533 1505 1437 1536 534 537 537 1514 1428 1404 1350 622 1481 1373 1452 1419 1383 1358 1034 1245 1277 1188 1188 1121 1005 1372 1549 1710 1516 948 1514 1517 1624 1652 1633 1555 1395 1372 1285 1285 1502 1340 1626 1694 1720 1845 2186 2525 2608 2313 2107 1877 1903 2825 2359 2359 2336 2034 2221 2357 2065 2294 2246 2229 2576 2613 2682 2093 1932 1879 1854 1854 1906 1894 2003 1981 1382 1433 2093 2151 2095 1556 1117 515 1507 1406 1253 1174 1174 823 799 1665 1337 1324 1555 1300 1328 1237 1233 1304 1024 1334 1389 1457 1457 1545 1505 201 1586 1101 710 136 -818 -1085 -2110 -2594 -3018 -4303 -4860 -5196 -5196 -5433 -4856 -5103 -5599 -6665 -6751 -6658 -6495 -6791 -6971 -7137 -7063 -7071 -6921 -6989 -6989 -7176 -7287 -7943 -7437 -7172 -7417 -6616 -6286 -6292 -6347 -6280 -6211 -6469 -6576 -6483 -6593 -6593 -6572 -6616 -6692 -6694 -6678 -6413 -6466 -6585 -6465 -6323 -6290 -6387 -6389 -6499 -6290 -6290 -5601 -5083 -4751 -4859 -4756 -4776 -4698 -4759 -4600 -4433 -4458 -4257 -3961 -3410 -2724 -2724 -2275 -2700 -2744 -2714 -2639 -2611 -2557 -2457 -2356 -2297 -2212 -2201 -2155 -2225 -2207 -2165 -2165 -2041 -2142 -2192 -4025 -2394 -2589 -2244 -1936 -2304 -1683 -1705 -1579 -1544 -1488 -1438 -1438 -1334 -1390 -578 -95 -630 1588 412 512 572 581 709 1233 957 1681 1022 1022 1092 1197 1167
1471 1370 1316 1343 1186 1186 1149 1206 1013 1234 1572 1471 1932 1355 1335 1169 1026 1070 1112 1153 1276 1276 1363 1435 1637 1483 1258 1571 1520 1581 1496 1550 1600 1545 1618 1511 1624 1624 1624 1681 2044 1836 1849 1854 1835 1901 2220 1912 1884 1883 1930 2197 2237 2296 2296 2312 2332 2346 2395 2429 2479 2496 2545 2631 2647 2762 2810 2836 2883 2924 2924 3317 4575 4021 3185 3235 3236 3269 3309 3350 3357 3461 3513 3631 3586 3611 3633 3633 3670 3747 3847 4024 3889 3876 3847 3784 3667 3570 3501 4165 3040 2799 4039 4039 4641 5250 5427 4163 6430 5988 5485 5599 5335 5281 6361 7117 6887 6888 6807 6807 6146 5856 5244 5010 4821 4783 4418 4119 3859 3723 3679 3624 3627 3623 3601 3601 3581 3560 3713 4195 3930 3642 4531 4362 4822 3589 3661 3919 4164 3187 3302 3619 3619 3752 3823 3302 3652 3433 3531 3598 3729 3589 4119 4221 4472 4711 5045 4877 4877 5564 5752 5496 5353 4730 4084 3843 3745 3427 3177 2918 2773 2702 2643 2550 2550 2499 2506 2545 2539 2551 2604 2618 2621 2623 2597 2556 2586 2578 2589 2585 2585 2585 2568 2518 2451 2379 2237 2163 2055 1872 1697 1605 1701 2247 1676 1434 1217 1217 626 944 891 924 878 888 913 874 443 -357 -404 855 966 770 1010 1010 1084 1155 1085 737 767 1240 1157 1257 19 1547 1469 1346 1547 87 80 1395 1395 1079 1211 1523 302 -455 474 883 911 990 936 848 933 752 747 642 642 677 639 533 548 586 501 313 374 295 424 314 430 373 254 399 399 529 429 195 188 381 494 592 427 865 922 1067 2 1031 1042 1071 1071 996 1104 955 913 992 1064 1021 710 1149 996 793 1603 1380 1429 960 599 599 1622 1354 1619 1545 1508 1493 1450 1378 1407 1489 1516 1302 1342 1515 524 524 1656 1735 1746 1651 657 1384 1372 1265 1314 1513 1527 1252 1223 1785 1303 1303 1503 1525 1547 1457 1416 1566 1845 1373 1400 1443 1835 1569 1359 1279 1476 634 634 1278 1649 1755 1673 1864 1916 1830 1791 1841 1792 1994 1433 1875 2297 2238 2238 2126 2127 2095 2820 2732 2212 2813 3020 1767 1719 1639 1649 1881 1989 1827 1827 1889 1914 2045 1028 2407 2565 2252 725 2208 1946 1499 1139 1039 1122 1224 955 955 1301 920 868 864 823 792 935 822 1200 1521 914 1050 1255 1420 1427 1427 801 1053 1049 518 -222 -410 -997 -1611 -2023 -2982 -3814 -4769 -4897 -5632 -6575 -6575 -6780 -6651 -6877 -6905 -6800 -6958 -6950 -7007 -7177 -7215 -7252 -7250 -7136 -7490 -7469 -7469 -7289 -7454 -7362 -7468 -7599 -7434 -7439 -7657 -6651 -6460 -6482 -6662 -6682 -6689 -6687 -6636 -6636 -6627 -6615 -6784 -6830 -6612 -6448 -6351 -6515 -6338 -6544 -6536 -6555 -6573 -6486 -6486 -6486 -6541 -6331 -6279 -5927 -5846 -5528 -5380 -5352 -5396 -5194 -4576 -4430 -3186 -3158 -3036 -3036 -2545 -2964 -3026 -2979 -2437 -2719 -2611 -2560 -2233 -2643 -2755 -2718 -2661 -2442 -2602 -2525 -2525 -2475 -4809 -3136 -2333 -2468 -3673 -2598 -2787 -1982 -1758 -1731 -1760 -1732 -1736 -1778 -1778 -1708 -1607 -1735 -1338 -428 47 233 496 512 1130 662 721 762 1472 941 941 1002 1069 1122
1648 1574 1390 1263 1273 1273 1125 1105 1167 1166 1331 1421 1470 1365 1299 1298 1156 1063 1263 1422 1678 1678 1813 1859 1990 1789 1156 1615 1485 1534 1494 1516 1474 1501 1489 1594 1592 1598 1598 1602 1830 1889 1841 1846 2046 1923 2261 1839 1857 1850 1882 2323 2277 2294 2294 2327 2335 2367 2401 2422 2466 2511 2512 2615 2716 2727 2777 3072 2998 2924 2924 2943 3520 3173 3152 3182 3215 3239 3271 3341 3349 3424 3477 3487 3552 3571 3590 3590 3597 3615 3604 3736 3917 3845 3738 4065 3684 3540 3395 3394 3984 3831 4932 4932 4442 4403 5187 4330 6319 5864 5421 5131 5236 5105 5039 6290 6877 6770 6606 6606 6849 6300 5171 5024 5283 5025 4764 4291 3996 3771 3752 3838 3869 3625 3595 3595 3584 3832 4184 4234 3809 3739 5143 5394 4482 3898 4127 4393 3753 3549 3948 3668 3668 3839 3865 3832 3778 3650 3653 3740 3930 4267 4473 4600 4576 4322 4161 5221 5221 5164 5100 5020 4900 3890 3846 3523 3329 3192 2961 2889 2756 2647 2603 2587 2587 2581 2587 2557 2536 2548 2597 2624 2629 2659 2652 2635 2636 2580 2594 2609 2619 2619 2551 2465 2392 2396 2283 2238 2248 1964 1934 1827 1928 2627 1666 1816 1524 1524 1057 708 999 1055 1144 1004 927 958 1150 -214 97 1335 1447 1043 502 502 1305 1283 1181 1163 1308 1438 1532 1753 1747 1748 1556 1304 1789 1357 1399 1354 1354 1314 1433 1758 1763 207 639 550 906 1023 1019 963 765 781 713 556 556 590 594 447 470 470 340 304 328 278 295 314 309 259 228 353 353 106 213 296 277 434 429 708 858 902 954 1116 418 1250 1112 1130 1130 1094 1170 114 1048 982 917 1085 941 1081 1351 1490 1574 1517 1321 1358 1350 1350 2127 1799 1779 1648 1505 1451 1503 1349 1339 1357 1491 1284 1356 1460 1692 1692 1700 1783 1527 1159 1198 1204 1224 1166 1246 1151 1264 867 1387 1914 1539 1539 1889 1656 1825 1713 1661 1663 1740 1919 1497 1674 1972 1362 1259 1312 87 -27 -27 -115 1726 1714 1684 1508 912 1177 1784 1718 1777 2031 2120 2206 2315 2314 2314 2381 2515 2919 2186 2232 2440 2285 3026 1759 1781 1731 1709 2192 1981 1781 1781 1790 1887 1883 1139 2073 2188 1218 944 619 1597 646 1016 1014 1024 1076 1444 1444 1231 890 930 881 853 791 891 981 1462 560 -727 872 1012 829 616 616 762 -12 170 325 97 -794 -1354 -2314 -2322 -3836 -4138 -5212 -5777 -6404 -6735 -6735 -6753 -6789 -6749 -6616 -6855 -6972 -7147 -7198 -7073 -7364 -7475 -7509 -7393 -7253 -7504 -7504 -7525 -7492 -7429 -7464 -7602 -7473 -6673 -6957 -6998 -6734 -6798 -6745 -7030 -6759 -6591 -6845 -6845 -6637 -6693 -6811 -6776 -6622 -6473 -6479 -6422 -6298 -6518 -6578 -6636 -6564 -6622 -6552 -6552 -6509 -6559 -6480 -6570 -5972 -6049 -5847 -5766 -5664 -5353 -5117 -4607 -3919 -3707 -3645 -3645 -3306 -3117 -3205 -3005 -3357 -3218 -3520 -3516 -3269 -2954 -2896 -2865 -2684 -2766 -2782 -2640 -2640 -4918 -3406 -2482 -3687 -3303 -2256 -2209 -2144 -2049 -1977 -1974 -2021 -1889 -1935 -1919 -1919 -1789 -542 -2220 -2121 403 -730 -552 452 555 600 596 685 750 796 908 908 950 1020 1032
1696 1180 1410 1285 1343 1343 1159 1193 1088 1153 1239 1819 1163 1468 1338 1158 1091 1079 1064 1423 1715 1715 2547 3460 2082 1274 1206 1462 1473 1520 1463 1475 1549 1563 1567 1589 1593 1586 1586 1567 1797 1820 1948 1998 1991 2226 2166 2206 2134 2047 2344 2296 2523 2268 2268 2331 2318 2344 2353 2408 2410 2494 2547 2600 2639 2706 2704 2520 3393 2904 2904 2914 2946 3035 3121 3160 3195 3220 3294 3166 3338 3393 3416 3426 3466 3504 3547 3547 3580 3539 3592 3631 3581 3499 3511 3692 3669 3465 3347 3209 3190 4400 3428 3428 4289 4074 4709 5215 5488 5810 5619 5088 5260 5011 4793 4916 6181 6348 6191 6191 6420 5772 5121 5313 4838 4674 4637 4468 4046 3859 3475 3186 4105 3897 3588 3588 3837 4441 4666 4073 4078 4195 4382 4142 3993 3996 4394 3654 3741 4552 4132 3705 3705 3803 3964 3961 3769 3794 3953 4000 4178 4331 4514 3596 4613 4725 5123 5000 5000 4950 4702 4556 4320 3833 3416 3209 3155 3039 2945 2850 2779 2748 2667 2632 2632 2578 2578 2593 2566 2594 2623 2619 2631 2661 2648 2637 2614 2586 2591 2614 2583 2583 2477 2436 2381 2341 2270 2284 2271 2394 2070 1888 1909 2056 1831 1849 1588 1588 1058 826 790 828 876 902 952 1054 1424 1638 452 973 1531 1144 -201 -201 152 1309 1199 1336 1497 1842 1157 819 356 596 762 121 485 1048 924 1197 1197 1781 1831 639 404 1811 -143 518 555 1008 424 877 -21 -23 697 572 572 649 -272 342 356 330 290 264 379 299 281 384 291 280 253 -648 -648 368 287 309 327 510 666 642 811 913 884 1008 1215 1248 1244 1281 1281 1058 1070 976 719 1156 1001 391 996 1175 1316 1479 1496 1611 1696 1743 876 876 778 2032 2003 1713 1568 1457 1507 1366 1431 1251 1301 1281 1301 1439 1617 1617 1918 1441 1125 1144 1154 1313 845 981 1075 1092 1132 1312 1492 1537 1783 1783 1717 1650 1593 1522 1500 1555 1583 1749 1702 2000 1573 1249 1252 1283 417 -86 -86 137 1834 1756 1737 1814 1839 1868 1746 1734 1725 1872 2122 2269 2320 2303 2303 2618 3169 2582 2175 2589 2208 2390 2492 2584 2521 2326 1586 1532 1719 1734 1734 1786 1790 1938 1896 1879 2149 1928 1328 1577 1272 1216 1111 1480 -584 1230 548 548 446 853 858 833 870 901 991 1120 1250 -981 -964 -938 624 575 478 478 -521 -169 -373 -772 -711 -1770 -2647 -2689 -3502 -3316 -4303 -4735 -6141 -6760 -6799 -6799 -6750 -6709 -6837 -6943 -7001 -7121 -7206 -7191 -7318 -7364 -7443 -7469 -7253 -7340 -7169 -7169 -6715 -6701 -6825 -6743 -6831 -6841 -7716 -7597 -7727 -7804 -7769 -7400 -6801 -6743 -6730 -6584 -6584 -6384 -6307 -6410 -6330 -6599 -6479 -6569 -6467 -6565 -6530 -6486 -6456 -6618 -6631 -6523 -6523 -6560 -6566 -6476 -6447 -6588 -6454 -5908 -5940 -5878 -5698 -5553 -4530 -4308 -3992 -3777 -3777 -3502 -3418 -2885 -2538 -3290 -3670 -3729 -3693 -3512 -3322 -3283 -3162 -3068 -2976 -2905 -3872 -3872 -2745 -3053 -3879 -3032 -2399 -2306 -2176 -2113 -2128 -2090 -2025 -2125 -2130 -2052 -2013 -2013 -1893 -91 -2059 -1533 1283 738 1084 501 513 539 1415 1112 917 884 857 857 917 1056 1069
1795 1347 1076 1577 1326 1326 1324 827 1242 1185 1054 1134 1034 1047 1055 1053 1083 1101 1064 1555 1774 1774 2274 2264 1718 1369 1402 1446 1465 1534 1487 1488 1983 1582 1531 1593 1578 1580 1580 1557 3444 2510 2004 928 2358 2077 2100 2043 1811 2077 2188 2798 2861 2255 2255 2277 2309 2335 2335 2401 2425 2787 2789 2578 2600 2659 2222 3065 3241 3022 3022 2877 2944 2968 2991 3283 3145 3236 3538 4318 3446 3330 3352 3412 3460 2811 3476 3476 3517 3577 3529 3530 3049 3442 3393 3439 3835 3638 3342 3183 3118 3989 3887 3887 4138 4241 4424 5452 5444 5489 5673 5729 5224 4904 4680 4821 5640 5908 5776 5776 5639 5210 4933 4805 4695 4652 4597 4462 4133 3819 3379 3246 4107 4518 4294 4294 4395 4452 4388 4520 4552 4124 4142 4238 4356 4436 3931 2464 4401 4365 4220 3799 3799 3838 4075 3999 3814 3926 3858 4099 4517 3023 3625 4837 4687 4618 4779 4992 4992 4618 4293 4042 3708 3340 3292 3165 3093 3036 2938 2847 2786 2790 2719 2638 2638 2633 2710 2831 2606 2762 2581 2597 2595 2614 2581 2589 2594 2599 2720 2568 2478 2478 2471 2392 2323 2344 2289 2499 2435 2100 1946 2037 2351 2371 2190 2023 1777 1777 974 851 926 1087 1158 1182 1409 1642 1902 2002 544 950 1617 1549 1466 1466 1359 938 915 1141 1350 1052 704 146 185 -477 -249 -674 -718 -628 -138 332 332 1379 -885 -1552 -1975 -1502 441 299 -208 686 935 992 772 491 621 528 528 429 317 300 342 235 340 249 384 311 291 297 370 337 206 417 417 410 256 291 347 591 707 688 894 1057 1144 1218 1398 1399 1439 1268 1268 1015 1313 1289 1429 1274 1273 1119 1036 1109 1117 1155 1426 1486 1476 1522 1814 1814 1969 1833 1501 1683 1524 1505 1481 1265 1427 1249 1196 1294 1467 891 1600 1600 1533 1149 1123 1046 1029 962 850 819 960 978 1080 1100 1195 1257 1548 1548 2009 1572 1599 1562 1439 1420 1520 1647 1761 1386 1304 1289 1321 1324 1478 1788 1788 1388 1821 1902 1868 1997 1992 1929 2036 1776 1702 1973 2269 2205 2402 2500 2500 2690 2687 2221 2313 2540 2532 1934 1112 2173 2230 1502 2172 2095 1756 1723 1723 1872 1966 1957 1603 848 1748 2194 1805 1533 1279 1068 1096 1509 124 1221 741 741 710 862 902 826 871 929 1008 1474 938 910 -151 491 459 -972 -1021 -1021 -1680 -266 -54 -1793 -2792 -3626 -2821 -3882 -2455 -4920 -4876 -6619 -6705 -6691 -6809 -6809 -6884 -6988 -6947 -7133 -7073 -7129 -7260 -7342 -7324 -7425 -7444 -7362 -7391 -7030 -6845 -6845 -6628 -6707 -6714 -6800 -6691 -6821 -6718 -6794 -6749 -6682 -6339 -7187 -7659 -6825 -6670 -6439 -6439 -6394 -6522 -6060 -6561 -6730 -6587 -6635 -6535 -6544 -6597 -6507 -6441 -6514 -6578 -6504 -6504 -6501 -6562 -6489 -6524 -6511 -6446 -6350 -6102 -5912 -5742 -5851 -5325 -4760 -4238 -4073 -4073 -3832 -3815 -4673 -4302 -3896 -3880 -3868 -3911 -3819 -3654 -3564 -3273 -3208 -3091 -3136 -3949 -3949 -3781 -3007 -2748 -2626 -2514 -2264 -2247 -2190 -2132 -2144 -2170 -2146 -2067 -2013 -2006 -2006 -1174 627 1119 882 1071 924 416 362 524 510 682 1056 760 855 902 902 923 946 964
2309 2341 1898 1702 1082 1082 1031 1414 1186 1067 1005 1013 1022 1060 1033 1044 1047 1078 1068 1074 1427 1427 1048 1504 1171 1169 977 975 1993 1495 1478 1520 1637 2682 1540 1586 1577 1563 1563 1553 1471 2580 2201 2038 2091 2124 1711 1677 1618 1697 2116 2628 3255 2328 2328 2241 2276 2326 2358 2377 2407 2488 2681 2733 2632 2733 2736 2981 3308 2971 2971 2820 2840 2877 3078 3317 3157 2993 3549 5245 4222 3226 3108 3357 3408 3518 3291 3291 3763 3744 3634 3488 3429 3424 3330 3182 3782 3611 3590 3151 3180 3478 3741 3741 3936 4227 4658 5641 5546 5746 5509 5283 5263 4734 4517 4468 4718 5280 5054 5054 5226 5067 4793 4733 4754 4636 4548 4400 4096 3780 3884 3997 3928 4428 4232 4232 4886 5767 5698 5580 5074 4330 4560 4685 4942 4770 3940 4527 4334 4007 3824 3832 3832 3906 3968 3954 3905 3972 4020 4200 3627 2810 3096 5031 4696 4560 4604 5550 5550 4824 4030 3559 3286 3246 3324 3203 3168 3183 2258 2247 3438 2932 2760 2732 2732 2827 2969 2795 2679 2625 2608 2536 2519 2549 2551 2658 2550 2584 2543 2447 2421 2421 2435 2331 2359 2473 2514 2225 2025 1870 2079 2162 2467 2835 2462 1830 1445 1445 965 1024 1360 1449 1399 1760 2026 2383 2802 1260 1835 561 1521 1467 1348 1348 561 311 132 761 1741 1253 722 607 271 -236 -914 -890 -737 -553 -296 521 521 1136 -1731 -2421 -2287 -2277 -1365 -253 -11 208 940 1040 823 777 649 569 569 390 369 345 269 174 308 265 340 304 286 264 487 425 214 238 238 343 323 415 -699 690 722 797 1010 533 1244 1400 1416 1353 1324 1179 1179 1124 1255 1665 1593 1414 1474 1351 1114 1141 1415 1193 1165 1302 970 1367 1556 1556 1633 1574 1762 1615 1489 1506 1423 1642 1664 1369 1191 1190 1456 1405 1542 1542 1385 922 688 873 871 1113 951 912 879 938 1026 1070 1158 1224 1224 1224 1312 1788 1600 1615 1527 1445 1581 1680 1310 1276 1292 1326 1648 1480 1402 1673 1673 1944 1107 2019 2202 2035 1364 2614 2166 2143 2131 1547 1646 2179 2373 2358 2358 2322 2238 2316 2120 2069 2493 2438 2333 2253 2153 2104 2085 2019 1786 1735 1735 1866 1994 2188 2138 2127 1940 1411 1576 1289 1144 1053 955 930 893 716 714 714 958 798 802 918 865 984 1076 1116 789 452 262 -26 31 -1116 -1120 -1120 -988 -2469 -2583 -2377 -3613 -4886 -3462 -4607 -5346 -5337 -6657 -6762 -6809 -6872 -6989 -6989 -6912 -7111 -7011 -7194 -7102 -7057 -7047 -7155 -6964 -7254 -7464 -7605 -6853 -6759 -6525 -6525 -6723 -6756 -6749 -6445 -6450 -6975 -6833 -6600 -6876 -6607 -6665 -6132 -6698 -6539 -6730 -6666 -6666 -6383 -6239 -6696 -6310 -6692 -6680 -6660 -6614 -6602 -6529 -6536 -6482 -7420 -6321 -6485 -6485 -6497 -6552 -6555 -6556 -6412 -6482 -6344 -6180 -5963 -5925 -5852 -5779 -5391 -5088 -4927 -4927 -4850 -4708 -4462 -4404 -4383 -3590 -4206 -4017 -4100 -3755 -3648 -3367 -5129 -3401 -3222 -3316 -3316 -3144 -2884 -2681 -2677 -2545 -2275 -2137 -2213 -2729 -2147 -2160 -2190 -2168 -2101 -2109 -2109 -975 1019 488 691 322 121 311 357 303 541 605 610 309 791 845 845 865 921 952
2450 1946 1667 1462 1566 1566 1493 1142 1005 1021 1007 1029 1031 1020 1029 1110 1093 1085 1091 1114 792 792 1205 1119 1078 1096 1016 963 1578 1538 1454 1430 1564 2059 2009 1561 1558 1548 1548 1533 1487 1694 2441 2132 1160 1277 1803 1499 1679 1567 1720 2268 2846 2552 2552 2226 2198 2248 2309 2359 2372 2413 2526 2722 3039 3033 2949 2937 3053 2778 2778 2665 2753 1832 1836 2701 2722 2778 3274 4154 4361 3561 3292 3307 3351 3646 4069 4069 4071 3841 3729 3565 3441 3391 3244 3153 3664 3471 3583 3268 3035 3110 3269 3269 3555 4247 4693 5275 5648 5674 5349 5119 4799 4619 4257 4095 4710 4903 5106 5106 5038 5271 4959 4839 4507 4685 4571 4398 4157 3928 3989 3872 4074 4313 4096 4096 3882 5648 5678 5493 5382 5104 5156 4615 4804 5824 3912 4158 4187 3969 3956 3918 3918 4114 4014 4157 4128 4132 4187 4431 4902 4830 5064 4623 4591 4807 4739 3137 3137 4099 3839 3476 3348 3305 3238 3153 3161 3281 2264 2281 3427 3336 2974 2951 2951 2991 2875 2806 2736 2691 2551 2508 2505 2471 2626 2680 2405 2411 2418 2392 2419 2419 2624 2862 2621 2339 2028 1924 1543 1929 1916 2223 2545 622 1876 1562 1577 1577 1300 1151 1385 1534 1311 1751 1079 2125 911 -407 -392 329 993 174 1291 1291 1026 172 -39 812 2013 1109 1028 427 386 94 -807 -812 -781 -387 -422 727 727 207 -865 -2185 -2229 -2231 -1238 -122 -586 -609 -595 289 784 983 673 711 711 559 293 394 254 212 317 208 396 347 272 281 453 439 0 290 290 342 347 511 626 735 816 825 969 1209 1214 1325 1275 1172 1082 1229 1229 1118 1708 1351 -77 65 409 1174 1029 1042 1055 1285 1300 1350 1295 1478 861 861 1159 1429 1422 1719 1481 1434 1374 1595 1681 1509 1136 1170 1368 1405 1186 1186 1335 913 676 799 868 927 659 929 898 838 986 959 790 1016 1152 1152 1300 1867 1615 1531 1531 1493 1838 1637 1411 1342 1962 1752 1662 1532 1526 1631 1631 1821 1106 1013 2436 2675 2870 2375 2222 2160 2559 2305 2209 2198 2264 2222 2222 2233 2272 2536 2625 2784 2465 2382 2210 2264 2087 2088 2002 2031 1938 1860 1860 1876 1997 2607 2297 464 428 558 1806 1465 1174 899 862 889 819 766 794 794 941 936 868 1073 1009 1427 128 1027 924 422 392 -280 -402 -430 -279 -279 -658 -1684 -2979 -3261 -2744 -4226 -4385 -4977 -5595 -6375 -6734 -6746 -6792 -6893 -7082 -7082 -7058 -7046 -7139 -7211 -7322 -7305 -7346 -6920 -6958 -7195 -6859 -6540 -6688 -6740 -6810 -6810 -6827 -6428 -6508 -6710 -6726 -6802 -6904 -6882 -6954 -6869 -6799 -6444 -6409 -6343 -6632 -6612 -6612 -6704 -6688 -6306 -6442 -6490 -6268 -6400 -6538 -6608 -6559 -6519 -6562 -6564 -6467 -6506 -6506 -6549 -6556 -6527 -6554 -6560 -6486 -6290 -6270 -6217 -6159 -6019 -5554 -5542 -5528 -5309 -5309 -5221 -5118 -4983 -4735 -4688 -4740 -4415 -4128 -4045 -3754 -3710 -3716 -4676 -3515 -3983 -3378 -3378 -3073 -2859 -2849 -2846 -2644 -2381 -1627 -2123 -1949 -2153 -2190 -2263 -2201 -2139 -2088 -2088 -1980 -987 -333 -175 3 64 175 255 343 478 638 638 685 755 960 960 834 900 930
2630 1871 1572 1531 1450 1450 1451 1326 1032 998 1012 1019 1039 1051 1050 1063 1074 1043 1065 1104 1107 1107 1057 1072 1063 1054 1040 1326 1490 1443 1489 1387 1406 1484 1676 1515 1534 1531 1531 1415 1389 1441 1537 1398 1401 2181 2028 1844 1498 1627 1717 1858 2272 2418 2418 2646 2408 2390 2263 2330 2384 2385 2469 2642 3099 3078 3252 3121 2955 2648 2648 2542 2549 2568 2638 2571 2757 2716 2799 3323 3943 3536 3419 3330 3616 2977 3478 3478 3927 3633 3748 2958 3276 3219 3124 3131 3034 3489 4460 3833 2876 2944 3234 3234 3707 4289 4672 5094 5778 5847 5734 5280 4923 4536 4045 3450 3996 5157 5086 5086 5078 5299 5186 5761 6748 5180 4822 4648 4499 4764 4145 4374 4560 4503 4525 4525 3668 4860 5167 5231 5139 4823 4722 4072 4159 4950 4048 4101 4050 4038 3905 4073 4073 4549 4395 4569 4344 4172 4324 4507 4618 4579 4757 4676 4594 4672 4755 3091 3091 4193 3945 3504 3381 3411 3353 3405 2137 3494 3701 3766 2374 3424 3134 3051 3051 2896 2824 2890 3010 2862 2623 2596 2479 2463 2412 2359 2345 2312 2326 2328 2688 2688 2819 2884 2585 2387 2089 1900 1876 1773 1817 2050 2119 2018 1839 1681 1530 1530 1344 1321 1318 1219 1190 1153 1604 1972 -591 -601 -623 709 1127 521 1590 1590 651 -197 -170 -422 796 1801 1813 914 801 -297 -1089 -677 -254 11 414 331 331 742 565 -362 -1149 -1380 50 95 304 -489 -753 -788 -833 -173 516 624 624 487 508 301 267 277 312 283 316 454 395 389 434 470 459 476 476 -101 384 458 -1 854 899 888 1008 1204 1318 1270 1218 1103 1110 1106 1106 1534 1610 26 -349 -387 -382 717 1037 1033 1170 1214 993 1374 1248 1302 1234 1234 1281 1487 1345 1393 1466 1565 1049 1517 1670 1385 1077 1170 1126 1183 1334 1334 1359 1355 1087 934 964 853 863 909 876 812 906 1030 1030 1149 1172 1172 822 2078 1750 1552 1618 1663 1450 1408 1424 1451 1755 1692 1653 1618 1623 2117 2117 2237 1466 1505 2189 2487 2160 2155 1018 774 2041 2374 2172 2129 2217 2186 2186 2186 2320 2332 2395 2436 1512 2466 2425 2213 2153 2026 2041 2057 1943 1917 1917 1956 2271 1733 1486 394 342 355 989 1628 1329 1104 813 793 635 902 866 866 1030 -104 1167 1062 1326 429 -703 -585 1371 401 145 235 348 -1071 -427 -427 -502 -820 -3899 -3948 -3880 -3959 -4433 -5019 -5474 -6217 -6842 -6821 -6874 -6941 -6942 -6942 -7104 -7063 -7178 -7144 -7291 -7341 -7480 -7350 -7240 -7383 -6648 -6655 -6726 -6475 -6702 -6702 -6908 -6763 -6711 -6739 -6863 -6781 -6812 -6608 -6514 -6735 -6777 -6920 -6915 -7030 -6544 -6659 -6659 -6568 -6739 -6070 -6616 -6260 -6378 -6412 -6481 -6529 -6545 -6591 -6615 -6504 -6543 -6551 -6551 -6556 -6558 -6568 -6554 -6518 -6517 -6452 -6352 -6343 -6709 -6546 -5626 -5591 -5982 -5418 -5418 -5315 -5086 -4945 -4887 -4801 -4605 -4595 -4276 -4126 -4048 -3940 -4062 -3909 -3924 -3571 -3415 -3415 -3254 -2943 -3028 -2935 -2793 -2428 -2091 -2123 -2048 -2099 -1887 -2066 -2078 -820 -1144 -1144 -1883 -1723 -499 167 84 160 170 221 524 601 595 732 719 825 870 870 926 957 850
3021 2568 2331 2276 2013 2013 1774 1447 1029 1121 1028 1030 1142 1034 1009 1785 1626 1133 1107 1086 1078 1078 1051 1129 1364 1111 1493 1491 1540 1455 1431 1401 1371 1363 1344 1660 2294 1933 1933 1696 1593 2055 760 1705 1711 1673 1991 1497 1421 1489 1813 2110 2617 2766 2766 2835 1853 3086 3121 3040 2288 2333 2359 2337 2538 2553 2547 2675 2771 3012 3012 2490 2473 2489 2652 2712 2983 3017 3455 3437 3340 3113 3024 2908 2949 2950 3005 3005 3097 3152 4227 5433 3692 3078 3039 2963 2919 2827 2720 2673 2550 2638 2650 2650 2752 3632 4178 4663 5347 5813 5734 5529 4669 4194 3745 2872 3292 3692 4343 4343 4801 4945 5624 5283 5564 5294 5540 5108 4762 4668 4845 5006 4811 4754 3761 3761 4352 4560 4683 4473 4482 4662 5104 4696 4952 5229 4419 4262 4132 4150 4122 4189 4189 4380 4406 4619 4705 4791 4771 4598 4406 4617 4637 4580 4079 3819 3796 3732 3732 3454 3408 2762 3393 3400 3311 3306 3444 2091 3179 3174 3186 3086 3231 2713 2713 2776 2773 2639 2766 2744 2664 2529 2368 2368 2306 2224 2276 2253 2214 2204 2106 2106 2252 3317 2770 2228 2349 976 1667 1596 1602 1622 1519 1634 490 452 1518 1518 1610 1459 1307 1262 1643 1959 1937 1924 2219 2045 1362 1346 1636 1877 979 979 -610 -42 -978 -1201 -553 401 1603 63 1296 856 -1154 -552 780 761 -151 625 625 458 51 -273 -939 -195 -180 28 -66 138 74 274 664 -708 -720 -581 -581 -555 125 147 -1208 -805 590 626 366 144 385 434 548 651 591 645 645 642 611 649 691 842 868 825 825 899 1095 1193 1152 1175 1136 1232 1232 1451 1393 1358 748 498 1373 1014 1250 1217 1254 1294 1242 1473 1423 623 1266 1266 1543 1611 1472 1250 1411 1293 1352 1250 -290 -105 1151 1370 1351 1333 1164 1164 926 867 793 805 845 852 1004 837 862 967 1027 1024 1179 1264 1401 1401 439 2059 1803 1851 1325 1378 1146 1658 1757 1938 789 272 1410 1789 1971 1674 1674 1927 979 933 892 862 923 1690 1734 1717 1724 1908 2137 2089 2673 2244 2244 2202 2326 2381 2258 2311 2328 2302 2302 2146 1992 2042 2011 2093 2175 1852 1852 1625 2739 2036 2047 293 -265 117 1618 1590 1357 1060 1102 975 1030 518 409 409 413 933 1692 1561 1861 -118 -153 -593 -756 -1045 -893 76 -696 -1188 -1855 -1855 -3383 -3480 -4492 -4364 -4640 -5422 -5661 -5928 -5241 -6536 -6937 -6960 -7023 -6931 -6991 -6991 -7024 -7133 -7149 -7180 -7347 -7571 -6659 -6558 -6715 -7083 -6898 -6856 -6789 -6646 -6733 -6733 -6795 -6825 -6856 -6809 -6622 -6259 -6186 -6388 -6746 -6778 -6989 -6870 -6973 -7059 -7059 -6982 -6982 -6360 -6496 -6055 -6045 -6590 -6618 -6737 -6651 -6568 -6672 -6528 -6605 -6508 -6560 -6529 -6529 -6466 -6489 -6381 -6313 -6319 -6309 -6301 -6207 -6324 -6091 -6084 -6102 -6114 -5703 -5401 -5401 -5235 -5089 -5003 -4898 -4823 -4720 -4639 -4458 -4481 -5058 -4263 -4144 -4142 -3988 -3868 -3795 -3795 -3522 -3514 -3515 -3469 -3260 -2123 -3174 -3266 -2498 -2294 1199 432 -258 -954 -509 -509 -1001 -786 -260 699 178 171 298 2059 2623 2028 1312 2373 1091 1380 993 993 1120 1220 1038
2659 2443 2407 2010 2488 2488 3015 1788 1479 1199 1030 1154 987 988 1764 2563 2488 1645 1133 1130 1126 1126 1138 1354 796 526 1874 1659 944 1661 926 1433 1350 1361 1335 1249 1941 2759 2759 2145 1889 997 621 779 1478 1494 1657 1383 1432 1492 1704 2183 2702 2661 2661 2532 1989 2101 2448 3008 2348 2363 2281 2256 1549 1493 2626 2548 2702 2414 2414 2388 2422 2466 2343 2794 3284 3479 3215 3857 3270 3394 3247 2983 2942 2894 2931 2931 2931 2955 3233 3584 3510 3167 3109 3022 2871 2748 2694 2629 2592 2544 3071 3071 3545 2789 2547 3379 3617 3980 4960 4728 4217 3947 4251 3287 3284 3398 3904 3904 4347 4729 5029 5099 5275 5108 5295 5019 4748 4892 5136 4714 4994 4873 4805 4805 4469 4277 4631 4385 4457 4593 4277 4378 5220 4661 4403 4374 4285 4288 4251 4330 4330 4486 4383 4762 4919 4944 4956 4795 4362 4344 4405 4133 4092 3733 3561 3362 3362 3367 3387 3406 3408 3405 3312 3298 3249 3172 3177 3182 3209 3148 3167 3136 3136 3179 3000 2871 2763 2652 2490 2384 2378 2290 2410 2405 2211 2394 2426 2055 2056 2056 2088 2164 2155 2266 1929 1722 1572 1591 1551 1898 2077 2241 2328 2145 1543 1543 1546 1459 1832 1659 2260 1782 1631 1691 2326 2608 1480 1635 1458 1396 -348 -348 -305 -1225 -849 -1174 -1122 169 316 -358 1383 -32 -626 -1420 -820 521 164 198 198 -298 -204 -796 -1049 -1045 -368 170 41 -26 -17 208 82 143 -580 -736 -736 -711 -759 -503 -2857 -1404 313 315 296 298 393 626 694 782 710 650 650 748 745 863 748 892 842 947 898 839 983 1108 1157 1215 -400 -517 -517 392 1320 1378 1295 1300 1263 1237 1200 1191 1239 1392 1340 1262 884 1163 1208 1208 1198 263 1236 1018 1019 1044 1290 1436 1500 1139 1140 1337 1055 800 -52 -52 920 889 801 794 798 836 801 809 864 974 1165 -475 1119 1399 1476 1476 1275 1987 1802 2069 356 1815 1703 1736 1755 1797 275 214 448 1906 1905 1995 1995 2527 1091 975 910 916 1430 1771 1601 1661 1736 2085 2018 2124 2240 2298 2298 2216 2399 2410 2259 2213 2259 2255 2257 1222 1425 2038 2077 1239 2373 1693 1693 1609 2652 1960 2118 2251 1990 1611 1541 1145 1063 963 944 836 822 861 809 809 853 755 965 977 189 1381 -444 -907 -1109 -1085 -933 -24 -834 -1971 -2460 -2460 -3677 -3852 -3634 -3832 -5242 -5645 -5788 -5974 -5875 -6661 -6816 -6958 -6903 -6848 -7043 -7043 -7033 -7038 -7085 -7349 -7452 -6646 -6670 -6434 -6643 -7017 -6922 -6807 -6791 -6669 -6945 -6945 -7001 -6952 -6822 -6647 -6539 -6638 -6987 -6967 -6923 -6832 -6478 -6561 -6968 -6921 -6735 -6889 -6889 -6329 -6685 -6809 -6671 -6642 -6795 -6772 -6848 -6636 -6542 -6703 -6648 -6529 -6468 -6331 -6331 -6451 -6349 -6282 -6459 -6456 -6459 -6466 -6315 -6148 -6240 -5740 -6054 -5872 -5466 -5543 -5543 -5302 -5310 -5034 -4863 -4817 -4822 -4663 -4638 -5264 -4532 -4365 -4339 -4245 -4102 -3864 -3797 -3797 -3675 -3593 -3579 -3551 -3420 -4713 -5265 -4642 -3289 -2341 -1155 298 -386 -1091 -913 -913 -1074 -850 245 -470 -135 -489 -357 -275 -103 103 981 1012 877 1479 1086 1086 1417 1362 1006
1940 2367 1930 2296 2458 2458 2915 1801 1388 1441 1355 1286 1776 1520 2139 2151 1992 1566 1362 1281 1243 1243 1404 1732 1939 2065 1937 2013 1931 1758 1619 1682 1631 1371 1290 1331 1583 2435 2435 2761 2008 1967 2226 1782 1542 1510 1529 1523 1557 1578 1601 1880 2442 1921 1921 1737 1703 1768 2556 2265 2366 2278 2278 2211 2363 2336 2553 2552 2233 2303 2303 2295 2324 2367 2407 2422 2737 3335 2697 3556 3920 3817 3497 3189 3107 3052 2879 2879 2876 2882 2921 2968 3077 3054 2976 2901 2774 2747 2664 2640 2576 2523 2491 2491 2695 2963 2499 2571 2757 2822 3173 3753 3758 3860 3649 3287 3214 3306 3301 3301 3884 4167 4813 5359 5298 5214 5132 4994 4855 5346 5595 5783 5446 4924 4721 4721 4556 4626 4570 4412 4516 4117 4534 4757 4769 4761 4669 4481 4560 4178 4480 4683 4683 4934 4890 5179 5107 4885 4690 4413 3608 3890 3668 3446 3487 3434 3420 3483 3483 3434 3385 3389 3426 3463 3456 3357 3249 3230 3253 3190 3140 3244 3113 3120 3120 3163 3170 2855 2716 2572 2457 2420 2731 2847 2585 2384 2517 2665 2937 2047 2049 2049 2008 1990 1975 1915 1923 1892 1802 1684 1527 2186 2210 2338 2261 2261 2216 2216 2146 1413 1221 1076 2105 1752 1910 1367 1757 3426 3293 1476 1284 1413 -501 -501 -1225 -1274 -1281 -857 -1266 -700 -773 -711 -600 11 -1432 -2403 -1265 -1320 -116 -82 -82 -1043 -576 -1125 -1111 -1126 -746 248 468 193 235 109 22 97 -29 -119 -119 -230 -150 -280 -143 502 473 272 480 366 440 508 621 641 668 487 487 127 -164 730 658 754 833 1047 835 706 1000 134 75 -214 -550 -615 -615 -443 1316 1238 1332 1325 1297 1244 1215 1253 1191 1275 1396 1616 1569 1006 1167 1167 1103 1052 989 1070 1087 1115 943 764 1215 1091 900 1216 1185 48 -153 -153 899 887 833 805 886 883 836 829 817 912 1016 1229 1222 1299 1452 1452 2151 2039 2034 1480 2075 1833 1656 1740 1789 1522 1811 1545 1876 1936 1832 2133 2133 2295 1970 1504 1013 1592 2040 1881 1851 1615 1988 2090 2131 2134 2275 2431 2431 2024 975 2194 2402 2351 2283 2228 2166 2175 2103 2066 2153 1823 2254 2443 2443 2433 2179 1971 1991 2115 719 689 1395 1075 952 895 970 719 616 901 862 862 592 630 719 822 245 1121 -2 -949 -1018 -981 -240 -1047 -795 -2005 -2089 -2089 -3517 -3766 -3957 -4242 -4437 -5012 -5807 -6004 -6811 -7007 -6664 -6693 -6871 -6948 -7199 -7199 -7204 -7204 -7298 -6997 -7125 -6741 -6458 -6415 -6622 -6959 -6963 -6599 -6675 -6797 -6990 -6990 -6949 -6909 -6525 -6598 -6796 -6859 -6917 -7031 -6942 -6607 -6647 -6847 -6963 -6399 -6565 -6807 -6807 -6954 -6364 -6159 -6118 -6142 -6489 -6225 -6613 -6885 -6727 -6553 -6671 -6275 -6590 -6480 -6480 -6547 -6566 -6511 -6486 -6524 -6345 -6447 -6442 -6197 -6202 -5614 -5994 -5950 -5710 -5684 -5684 -5443 -5380 -5258 -5134 -4992 -4956 -4795 -5216 -4698 -4544 -4529 -4473 -4221 -4154 -4103 -3871 -3871 -3990 -4158 -4157 -3991 -3817 -4880 -3280 -2797 -2743 -2290 -1762 268 -1065 -683 358 358 -60 -431 -863 -469 2 -441 -466 -120 1057 393 410 1212 1090 1130 1792 1792 358 667 565
1292 1821 2043 1379 1408 1408 2268 1770 1674 1625 1555 1026 1455 1684 1651 1693 1208 1464 1533 1462 1593 1593 2671 2165 2044 1981 1992 882 899 1866 1751 1679 1681 1624 1665 1768 1729 2269 2269 2456 2236 2134 1628 1243 1350 1717 1530 1521 1536 1623 1831 1530 1819 1737 1737 1781 1786 2031 1303 1444 1408 2282 2202 2264 2371 2476 2442 2488 2214 2263 2263 2313 2319 2324 2352 2347 2355 2351 2705 2498 2669 4642 4933 4305 3664 3672 3213 3213 2833 2815 2802 2817 2839 2819 2781 2724 2715 2653 2635 2613 2580 2521 2468 2468 2419 2426 2410 2448 2454 2540 2715 2170 3426 3691 3622 3465 3240 3276 3430 3430 3805 3937 4672 5016 5032 5056 5036 5102 5272 5976 5576 5227 5299 5451 5048 5048 4959 4944 5344 5844 4811 5223 4781 5034 4788 5138 4934 4750 4839 4990 4893 5321 5321 5475 5225 5456 5232 4697 4216 3590 3476 3458 3470 3435 3496 3512 3436 3433 3433 3447 3318 3448 3446 3419 3404 3334 3305 3249 3245 3203 3168 3150 3111 3113 3113 3207 3186 3132 3111 2585 2674 2569 2582 2237 2184 2274 2389 2466 2695 2347 1993 1993 1940 1914 1841 1863 2169 2202 2033 2049 1831 2129 2263 2337 2478 2109 2131 2131 2192 2282 -504 -774 80 1711 1748 173 2395 620 2419 1270 -295 -85 -696 -696 -1301 -1320 -1274 -1214 -1022 -955 -1100 -1341 -1225 -1068 -1535 -1484 -1272 -1135 -1168 -1142 -1142 -1150 -629 -1191 -1139 -1215 -555 192 640 425 310 257 185 112 -146 -60 -60 47 -25 86 -22 98 -25 381 -55 -27 482 515 546 571 607 850 850 798 823 832 843 743 808 725 769 713 789 937 1129 1134 373 -346 -346 809 1307 1233 1328 1153 964 1198 1303 1271 1200 1171 1371 1439 1527 1491 1064 1064 1082 1050 975 1333 97 -49 362 757 1208 998 1058 1284 1274 1335 1219 1219 806 1073 916 888 885 1036 900 912 850 882 1029 1065 1124 1297 1773 1773 1905 1885 1922 -60 1904 1142 1599 1773 2067 1774 1772 1699 1849 1818 2030 1179 1179 2277 2294 2042 1946 1926 2133 1364 559 2123 2185 2090 2054 2250 2519 2521 2521 939 796 815 1843 2444 2304 2246 2164 2199 2201 2346 2261 2425 2509 2058 2058 2572 2175 2006 1959 1867 1854 1158 1225 1018 977 948 877 821 632 1204 1204 1204 659 647 702 669 763 767 1107 899 548 5 -934 -680 -1850 -1985 -2711 -2711 -3700 -3711 -3522 -4645 -4626 -5281 -5882 -5927 -6794 -6932 -6797 -6899 -6887 -7077 -6742 -6742 -6790 -7119 -6510 -6674 -6477 -6699 -6585 -6398 -6321 -7095 -6856 -6504 -6748 -6897 -6880 -6880 -6903 -6811 -6598 -6631 -6916 -6950 -7025 -6913 -6884 -6595 -6591 -6817 -7048 -6946 -6990 -6597 -6597 -6390 -6830 -6648 -6794 -6651 -6090 -6619 -6666 -6748 -6740 -6823 -6701 -6532 -6459 -6743 -6743 -6705 -6654 -6574 -6561 -6431 -6402 -6426 -6278 -6251 -6175 -6194 -6183 -5450 -5539 -5468 -5468 -5431 -5284 -5226 -5178 -5240 -5549 -4788 -4879 -4842 -4562 -4560 -4433 -4351 -4367 -4334 -3791 -3791 -4871 -3647 -3689 -3607 -3560 -3402 -3208 -2751 -1476 -2325 -2102 -1842 -2098 -1049 -1435 -1435 -898 52 -795 -57 -63 -531 -463 2552 791 281 358 662 536 932 430 430 214 550 2178
