ncols        587
nrows        32
xllcorner    -5666128.10364
yllcorner    -1377273.59224
cellsize     19984.154933183883
-1468 -550 -466 -1467 -1608 -1349 -1349 -1430 -1589 -1913 -1644 -1474 -1699 -2234 -2451 -2622 -2517 -2571 -1627 -1878 -1276 -1455 -1455 -720 517 -447 -3972 -4480 -3762 -2064 235 -25 -492 240 175 437 -326 -2059 -3197 -3197 -3309 -3340 -3046 -2381 -1092 -415 -618 1711 2248 2122 1600 -340 -1177 -1514 -1651 -1651 -1370 -1062 -924 -1240 -1466 -1065 -550 -1430 48 709 1312 706 754 1089 532 532 85 -149 -528 -679 -463 -1147 -1208 -1281 -883 -851 -535 -94 145 266 -109 -109 10 335 50 -136 -15 49 312 1103 1088 58 -283 1015 1819 477 -140 -462 -462 -651 -586 -441 -542 118 906 1288 677 -1245 -1249 -1548 -2870 -2961 -3087 -3531 -3531 -3748 -3681 -3826 -3642 -3306 -2613 2014 -15 -471 1202 3587 2339 2219 2766 2107 2107 2112 1914 2616 3698 2548 2577 3001 2607 5938 5401 5125 4329 3911 2917 2203 1261 1261 1266 1410 1349 1882 2047 2928 1597 761 718 625 1262 2606 2793 1030 198 198 494 -1960 -2315 -2425 -1901 -53 122 -309 2409 1842 903 1073 1001 854 205 205 -147 -7 1675 2824 2656 1452 1537 1430 2598 2606 2608 2791 3256 824 427 441 441 421 731 936 1814 4616 2795 2645 5208 6747 5520 2158 1288 2536 1893 1237 1237 1616 1725 1968 2247 2378 3293 4774 2867 3069 2712 2228 3015 -698 1904 2211 2211 2085 2121 2996 2765 2454 2250 2594 3900 3844 2806 3628 4790 5563 4732 3083 3083 2339 1799 1270 1303 1476 1884 4196 4852 5302 4880 3546 3300 2763 2122 2075 2173 2173 2272 2601 3024 2295 2416 2031 1510 3199 2742 263 932 3404 3608 4152 3382 3382 3129 3192 2634 2702 2744 2319 2265 2883 3226 1789 160 3370 2053 1858 1887 1887 1712 1473 1975 1915 2013 1979 2780 3931 4646 3984 3820 3655 3685 3683 3437 3215 3215 2812 3755 3976 4079 1850 -371 -577 169 3526 3446 4704 4432 2160 1231 1341 1341 2054 2760 2318 2473 1550 2168 2079 1476 1129 1160 1239 1342 859 434 518 518 613 1579 1516 872 919 710 961 770 1699 1050 560 469 340 306 832 -2836 -2836 -4053 -219 -983 -1096 -1626 -1975 -1086 -740 -866 -4360 -5408 -5858 -6143 -6190 -5835 -5835 -5566 -3584 -2106 -1737 -3049 -2825 -2416 -2088 -1524 -837 -5952 -5794 -5497 -3828 -4184 -4184 -3889 -3223 -1505 2398 2406 2380 1840 1570 3388 1827 2830 2368 764 898 958 958 1313 -192 -525 -97 96 509 987 786 -424 1379 3127 1334 389 -135 1484 -1146 -1146 -1723 2544 2431 1523 -412 -1433 -1364 -1145 615 608 -37 -523 -412 -1916 -2208 -2208 -2227 -2161 -1364 -2235 -2884 -2901 -2581 -2355 -2473 -2315 -1772 -1749 -2137 -2714 -2927 -2927 -3005 -2454 -2206 -2458 -2580 -2533 -1971 -1620 -1447 -1893 -2555 -2413 -2030 -2052 -2161 -2115 -2115 -1989 -1590 -1383 -1465 -1153 -1165 -2396 -1355 -1529 -1749 -1552 -1532 -1400 -1534 -722 -722 -448 -510 -166 490 1681 2436 2977 3563 2044 3186 6274 7537 6109 6259 4255 4255 3516 3353 3665 5706 6333 2219 1437 2519 5841 4786 3481 3627 1590 1025 913 2523 2523 2924 4447 3478 3400 3497 4001 3674 3766 3417 3467 3558 3877 3645 4352 4571 4571 3879 1832 1511 1294 2325 2542 3996 3299 3770 4023 2217 4407 3480 1833 4908 4908 3054 2296 3768 3543 2631 2360 3047 1620 1913 2173 2050 2616 3318 2130 3144 3144 2878 2337 2198 1951 1885 1945 1235 1187 1234 426
-1301 -789 -253 -1443 -1420 -1515 -1515 -1556 -1797 -1903 -1856 -2041 -2215 -2657 -2844 -3044 -2647 -2645 -2296 -2363 -2094 -1502 -1502 26 805 -3893 -4955 -5122 -4971 -4280 -977 349 -951 -1634 1016 1146 -611 -1872 -2167 -2167 -2849 -3345 -3149 -2692 -1873 -811 -890 2320 2267 1387 -563 993 -719 -1251 -1280 -1280 -1171 -1078 -841 -1365 -1323 -938 -271 -1920 -1882 262 1383 678 41 973 453 453 -16 -672 -606 -710 -765 -578 -1378 -1031 -726 -778 -764 -778 -36 624 142 142 -528 -415 -103 -308 -842 -722 -403 -309 506 485 955 1293 1441 -46 -620 -668 -668 -816 -508 -517 -401 388 291 943 126 -1600 -2496 -3018 -3243 -2645 -4659 -2670 -2670 -3772 -3750 -3946 -3802 -3721 -3409 -725 2119 136 3379 2877 2506 2038 1790 2516 2516 1890 1646 2207 3117 1716 1755 6986 5950 5566 5600 1648 1485 3676 3573 1811 1663 1663 1546 1267 1257 1254 2190 2335 1055 494 784 636 992 2547 1876 712 525 525 -1375 -2344 -2486 -1970 -1919 -1447 -12 -406 3047 2211 1229 669 1061 914 256 256 75 -308 -263 726 2665 2179 1663 2303 1209 1984 1523 2018 2953 1209 233 118 118 130 454 1282 1153 2822 3541 4215 3938 4388 5065 2125 2418 4014 1430 1716 1716 1695 2004 2109 2027 2868 4456 3606 2704 4030 4370 3116 2976 -173 2430 2266 2266 2442 2287 2415 2787 2616 2772 3843 5085 4886 3751 3619 5678 6303 5438 3927 3927 3169 2509 2158 2252 3064 3668 5181 4947 5236 5010 5201 3945 2746 2472 2433 2827 2827 2852 2737 3268 2164 1930 2784 3075 3790 708 316 443 848 4192 3476 4736 4736 3598 3042 2977 2691 2109 1529 2029 2619 2620 2184 -284 3003 2389 2481 1828 1828 1951 1724 2470 2376 2003 1637 2686 3266 2488 2338 2158 2150 2350 2697 3286 3907 3907 3506 3695 4494 4077 189 -427 -162 -621 1542 1161 924 4161 2677 1368 1113 1113 1444 1330 1411 2442 940 1181 1388 2260 1371 1151 1195 814 627 -11 89 89 128 310 1222 1362 716 462 224 138 1075 1142 143 127 594 203 -125 -985 -985 -1441 -887 -1248 -2442 -2129 -1228 -1337 -1412 -1232 -3768 -4650 -4599 -4859 -4830 -5382 -5382 -5208 -2350 -1937 -2327 -2990 -2730 -4871 -2936 -1943 -13 -5393 -6077 -5411 -3442 -4112 -4112 -3867 -3505 -2012 2510 2285 1936 1842 1749 1662 1811 1818 1721 1115 939 944 944 1283 -48 94 403 39 207 873 845 1455 1922 2388 2146 344 915 2126 -1619 -1619 -1632 23 1911 -1317 -1932 -2316 -2425 -2410 -1735 688 77 -491 -771 -1647 -2067 -2067 -1660 -1853 -1205 -2058 -2681 -2225 -2768 -2662 -2480 -2546 -2352 -2073 -2238 -3155 -3247 -3247 -2628 -2923 -2972 -2408 -2677 -1958 -1752 -1352 -1343 -646 -1538 -2544 -1894 -2090 -2264 -2130 -2130 -1761 -1524 -1491 -950 -1166 -1299 -1040 -1423 -1744 -1304 -1652 -821 -1450 -1140 -415 -415 -379 -214 24 1108 1802 2552 3094 3385 3748 4106 3736 3995 6758 5458 4237 4237 4569 4189 3630 4063 7340 6901 6551 7221 5147 4195 3108 2786 3646 4589 4147 4568 4568 6073 4970 3565 3277 3916 3697 4058 4114 3912 3678 3595 3833 3539 4320 4960 4960 1566 1819 1461 1440 1083 3200 5463 4732 4547 3490 2920 2859 3264 5600 2560 2560 634 316 892 3738 3609 2688 2977 2197 2074 3131 4126 3842 3063 4394 2132 2132 1767 3173 3356 3171 2384 1548 812 559 1080 359
-1712 -1489 -2276 -474 -1008 -1031 -1031 -1376 -1373 -1787 -2213 -2506 -2580 -2985 -3144 -2962 -3268 -2804 -2477 -2362 -2228 -1929 -1929 -570 -1338 -4656 -4974 -5104 -4936 -4255 -1624 615 -726 -1609 12 747 -662 -1655 -2548 -2548 -3197 -3150 -2861 -2210 -1550 437 1200 2740 1227 1369 129 1525 283 -698 -671 -671 -739 -310 -460 -832 -1232 -341 1310 -1898 -1872 -997 384 -17 -46 614 59 59 -323 -587 -1576 -795 -887 -910 -32 341 -119 -635 -592 -566 31 232 -230 -230 -626 -455 -471 -1000 -1025 -801 -760 -487 -299 266 1249 620 123 9 -616 -808 -808 -528 -109 -176 150 537 408 -428 -1913 -2213 -2824 -3236 -3481 -3431 -2586 -3227 -3227 -3563 -3885 -3859 -4093 -3888 -3462 -2794 1383 -565 2852 2543 2530 1057 1961 2505 2505 1964 1975 2462 3072 2546 2488 6346 5799 5064 3227 540 509 774 3340 2182 1967 1967 1486 1511 1211 1485 2518 3105 2358 746 333 286 445 1745 1207 1436 647 647 -18 -2155 -1681 -2161 -2191 -1510 -299 237 2568 2270 1064 597 1585 944 673 673 415 -35 -47 511 1133 2486 3026 2865 1060 1369 1622 1652 2547 794 216 -64 -64 166 346 436 869 3138 637 -410 3035 3322 4469 3221 3235 6623 6879 4305 4305 3116 2241 1807 2631 3435 4943 4662 4209 3128 4529 4078 2982 1883 1889 1973 1973 1842 1993 2475 2267 2780 3877 4221 2733 1739 2931 5351 5670 4605 4006 4934 4934 4364 3861 3341 3505 5168 4739 5354 5585 5612 4531 4984 4078 3228 2874 2501 2412 2412 2720 2740 2473 1602 2285 3452 3778 4483 1768 -335 -65 667 2948 3281 2659 2659 3299 3382 3087 2670 2069 1851 1373 2277 1955 2627 2250 1756 1885 2231 1759 1759 657 1960 2462 2505 2091 2146 2929 3436 2407 1909 1761 1913 2011 2278 3835 3700 3700 3736 3847 3656 4408 -114 3 85 -326 1090 1256 1526 1817 3226 2229 1827 1827 1523 900 816 2038 897 1033 1292 1128 1317 808 891 258 364 49 -250 -250 -262 161 414 923 632 -155 -225 -219 459 877 -85 -206 47 -451 -422 -499 -499 -781 -1180 -803 -1518 -1574 -1572 -1374 -1343 -1081 -363 -3900 -4271 -4837 -5133 -5168 -5168 -3422 -2106 -1733 -2503 -2516 -2556 -2958 -1974 -1837 -968 151 -2327 -3380 -3998 -3837 -3837 -3722 -2751 28 2530 2445 1575 1400 1532 1345 1207 1266 2021 1304 1747 1638 1638 1732 479 -114 175 546 793 -786 708 1150 1494 2301 2423 68 254 1459 2154 2154 255 2249 -54 -2183 -2269 -2699 -2546 -2389 -2228 193 74 -1001 -1706 -1406 -1450 -1450 -1219 -1218 -1899 -2583 -2585 -2738 -2135 -2227 -2112 -2268 -2076 -2004 -2758 -3295 -3196 -3196 -2921 -3091 -3043 -2798 -2351 -1660 -1690 -861 -409 -929 -1275 -1569 -1764 -2396 -2423 -2178 -2178 -1897 -1796 -1425 -1457 -1431 -1891 -1772 -2010 -1956 -1903 -960 -2072 -481 -902 -140 -140 -199 -463 -369 655 1642 1986 2731 2938 2916 2983 2995 3560 3604 1909 3340 3340 2433 2735 3639 3477 7371 7176 7291 4396 4127 4585 5004 2403 2788 4251 4567 6029 6029 7011 6496 3880 3284 2430 4119 3918 4161 4185 4039 3700 3249 3899 5733 6461 6461 2502 1923 1862 1689 1786 3064 5925 4945 5907 3794 2979 2673 3126 4435 945 945 406 238 517 3079 3718 3594 2643 2526 2725 3902 2882 1024 803 2733 4313 4313 3173 3626 3352 3539 3125 2117 1135 592 1053 1815
-1456 -2179 -1518 -742 -1044 -1167 -1167 -1223 -1700 -2025 -2379 -2924 -2964 -3214 -3232 -3132 -2925 -2763 -2510 -2728 -2386 -2136 -2136 -1103 -1635 -4230 -4944 -5112 -4544 -4258 -889 152 -1104 -1130 -388 241 -863 -1601 -2236 -2236 -2490 -2560 -2361 -2038 -630 722 2045 1723 266 385 -155 1752 1433 1032 -312 -312 5 423 526 39 -27 -163 827 -320 -140 -209 5 -2019 318 -653 -199 -199 -529 -491 -712 -479 -1020 -728 -632 256 256 -302 -683 -812 -512 -186 -460 -460 -1090 -676 -1052 -1396 -1267 -1008 -1188 -626 -127 454 -1662 -76 -45 -234 -594 -558 -558 -287 -697 -569 261 712 640 -1396 -2359 -2854 -3037 -3425 -3632 -3757 -3658 -3563 -3563 -3752 -3937 -3968 -3896 -3573 -3276 -3283 -1191 2040 2651 2329 2544 1626 1977 1588 1588 3283 2104 2030 1914 2700 3658 4138 3443 5370 1330 682 496 761 3864 2253 1939 1939 1591 1365 1373 2338 1261 -449 405 1335 251 143 232 1350 2084 1303 514 514 -529 -2379 -1305 -2024 -1910 -673 -394 907 1819 1291 863 570 1167 1451 1148 1148 971 708 795 362 -278 -151 906 1795 1885 1105 1228 1550 2231 2536 531 314 314 294 435 865 1712 2407 2878 2342 2201 2739 1837 1721 2401 4885 2052 2586 2586 2305 6155 4369 3261 3631 4811 1776 1451 2068 2277 3651 3529 2054 1607 1726 1726 1863 1897 1967 2595 3396 4515 2704 685 118 451 3775 4915 6000 4024 4316 4316 4169 3861 3145 3218 3718 4157 5143 4481 5462 4858 2933 3734 3130 3731 3827 3236 3236 2854 4102 3525 3579 3320 3365 2458 3422 4217 3201 2198 3305 3586 3594 2991 2991 3080 2811 2451 1691 1679 2141 1957 2591 2785 2128 1745 1513 1729 1843 1555 1555 1869 1965 2255 2315 2035 2035 1069 2356 2935 1997 1728 2133 2062 2454 3254 2887 2887 3012 3038 2547 3029 540 -42 543 604 1774 1301 559 1711 3338 2767 2338 2338 2540 1562 1065 1326 2022 2255 2397 2224 1189 1030 2010 558 370 154 -89 -89 -118 57 303 692 504 -74 -211 192 379 532 -527 -217 -232 -467 -313 -2065 -2065 -1131 -931 -987 -1384 -1447 -1544 -1441 -1382 -1136 -450 -623 -2161 -3508 -3907 -1746 -1746 -1678 -1424 -1936 -4816 -2084 -2720 -2775 -2377 -1857 -1741 -694 -673 -3024 -3279 -3082 -3082 -2729 -510 2173 131 1662 1419 820 1158 1619 964 1592 1360 1006 2150 2065 2065 1715 492 5 -184 568 249 237 -309 1202 1302 2977 2129 739 606 1093 2446 2446 4115 3396 -686 -2022 -3409 -2669 -2796 -2612 -2299 -391 270 -451 -1329 -1990 -1720 -1720 -1597 -1511 -1734 -2411 -2709 -2686 -2785 -2677 -2427 -2120 -2179 -2613 -3229 -3097 -2404 -2404 -3127 -3212 -2835 -2151 -1249 -1383 -1918 -1861 -1341 -826 -619 -1103 -525 -1832 -1487 -1806 -1806 -1913 -1514 -1180 -1193 -1605 -2296 -2542 -2275 -2177 -1713 -578 -1294 -443 -545 -644 -644 -354 231 4 776 1746 1983 2122 2111 2514 2746 3042 2797 3244 2948 360 360 891 1054 2236 4348 7033 7156 6631 4460 3915 4504 4373 4068 4344 6249 4840 6979 6979 6980 6255 2451 3202 3235 3416 3310 2743 3436 3991 4091 4411 4882 5316 5682 5682 1950 1499 1797 1962 1949 4343 3978 2302 2822 4205 3508 2609 2747 2256 1661 1661 549 211 734 3864 4053 2305 1985 3320 3315 4658 1619 877 550 3764 3787 3787 4233 4299 3953 4001 3607 4323 2694 2223 1563 2060
-1213 -777 -1023 -1127 -1100 -979 -979 -1282 -1276 -1984 -2629 -2741 -3245 -3248 -3137 -2999 -3030 -2859 -2343 -2477 -2646 -2280 -2280 -1265 -169 -3915 -4078 -4542 -4230 -2253 -221 -445 -826 -1170 -1497 -882 623 -759 -1300 -1300 -1510 -1669 -334 -811 489 1021 1254 960 1388 760 223 794 1426 905 990 990 1204 1144 1077 810 865 1159 943 266 655 -149 -2223 -1738 398 -1025 -1053 -1053 -582 -162 -285 -693 -847 -721 -462 -192 -197 -126 -185 -1155 -1171 -712 -181 -181 -874 -652 -647 -625 -682 -844 -678 -503 -26 1134 1407 316 -167 -644 -610 -689 -689 -577 -589 -615 63 778 -402 -2036 -2767 -2999 -2482 -3007 -3908 -3946 -3442 -3250 -3250 -3157 -3347 -3730 -3691 -3604 -3428 -3391 -2202 220 2256 1730 1529 1929 1834 1951 1951 2585 3208 2120 1839 2165 2636 3153 3264 4267 3595 1138 759 1995 3250 1465 1577 1577 1619 1293 1432 2091 -1005 -872 -555 2944 663 449 512 1324 3281 2489 770 770 69 51 -802 -196 -1188 -617 650 2423 1094 1110 824 403 626 1570 940 940 507 1165 1074 -236 -508 -243 65 1047 1452 783 674 644 1399 2197 3302 2072 2072 1941 1636 1595 456 903 1792 1793 2050 1906 1506 1250 1813 4268 743 670 670 1310 5943 6712 5679 3886 3886 2126 1641 1272 1007 2588 3760 2717 2239 2226 2226 2200 2157 2195 2812 2930 4846 1262 246 453 106 3510 5136 5479 4872 4516 4516 3395 3918 2678 2233 3210 3805 3401 1958 2740 3445 3139 2464 1661 3328 3334 4023 4023 3338 3459 3247 3393 2800 3174 1629 2682 2839 2612 2943 2532 2925 3921 2782 2782 2449 2077 1716 1486 1416 1640 1846 2474 2763 2538 1931 1852 2051 2143 1820 1820 1903 2308 2443 2312 2856 2964 3557 4221 3073 2996 2893 2445 2471 2712 3035 3104 3104 3179 2707 3303 3549 4008 4883 3152 2532 3328 2047 858 2447 2814 2426 3030 3030 2885 3743 1603 2572 2117 1199 2783 3851 2192 1327 1161 681 706 -224 174 174 210 523 -139 392 270 -147 217 10 -142 106 -461 201 -286 -735 -355 -558 -558 -869 -820 -1198 -1430 -1683 -1593 -1248 -1412 -1341 -1425 -1421 -845 -1203 -1333 -1136 -1136 -2498 -2566 -2781 -2608 -2424 -2489 -2594 -2454 -2081 -2005 -1000 -194 -131 -1697 -514 -514 543 1619 1595 907 531 1024 661 1242 1408 1038 1102 530 371 1437 1947 1947 1470 249 450 -200 198 205 362 689 1100 1374 1887 887 18 253 1489 1706 1706 2219 2538 -479 -1761 -1840 -1851 -1337 -2118 -2285 1419 1117 -434 -1178 -1778 -2071 -2071 -1906 -1938 -1951 -2324 -2328 -2218 -2707 -2800 -2694 -2403 -2630 -2726 -3020 -2869 -2738 -2738 -3120 -3490 -2532 -2584 -2155 -812 -1445 -773 -1475 -2106 -1161 35 -452 -584 -861 -1117 -1117 -1104 -1543 -1356 -1182 -2129 -2399 -2086 -1924 -1489 -1696 -834 -1038 -685 -419 -710 -710 -305 620 170 698 994 1705 1610 1966 2417 1432 1536 2655 2503 3926 416 416 896 1211 2166 5533 5212 6538 5234 4300 3820 3717 3660 3826 5658 5351 4051 3220 3220 2336 4240 3373 3627 1964 1969 1795 2954 3461 3995 4237 4980 4750 4397 5567 5567 1864 1364 895 1108 1468 4215 3874 2181 884 2979 4545 3786 4366 781 694 694 1054 1281 2891 4217 3112 1826 3008 1980 3344 5469 4789 1779 3403 3809 3912 3912 6207 5268 2753 3847 4020 2009 1861 2276 2101 1502
-705 -1491 -547 -1118 -1234 -1110 -1110 -636 -792 -1902 -2820 -2972 -3152 -3196 -3165 -3152 -2942 -2832 -2464 -2603 -2407 -2367 -2367 -1806 -779 -270 962 -1192 -369 53 -40 -842 -1102 -1515 -1728 -1497 -262 348 145 145 -557 -114 692 1297 258 264 433 388 1087 1639 3047 2149 1694 1135 876 876 448 2520 2945 1653 1555 1317 -149 -403 6 921 83 753 128 207 -903 -903 -1186 -420 -26 -452 -91 -541 -581 -338 -215 -19 197 -588 -670 143 89 89 365 344 91 -313 -212 -149 409 580 558 863 121 -20 11 -192 -521 45 45 -488 -283 146 -779 462 -262 -2320 -3062 -2954 -3259 -3447 -3674 -3618 -2823 -2707 -2707 -2572 -2908 -3118 -3408 -3775 -3580 -3602 -2997 -1465 2268 2278 2241 2069 2094 2351 2351 2027 2681 2283 2053 2002 2192 2623 3670 2657 4310 3960 3154 3864 2077 1369 1451 1451 1414 1689 1315 1654 1644 -400 1940 2407 1952 673 1131 3140 2143 1994 2100 2100 621 428 240 -471 -271 -352 2252 2347 1610 861 364 799 1371 1901 1381 1381 1461 1420 820 565 72 -425 -206 606 802 481 27 -32 519 1059 1230 666 666 921 2519 704 659 814 1546 838 1608 2059 2619 2128 2790 3623 3312 764 764 2275 4897 6231 4521 3649 3340 2186 566 556 803 2902 4324 2678 3056 2125 2125 2278 2783 2348 2589 3291 4876 1679 254 190 1195 5241 5075 2937 2669 2454 2454 3467 3280 2823 2330 3573 5167 3102 2055 3427 2981 2649 1817 1102 1652 3196 2808 2808 3185 3337 3609 936 903 2872 2979 2519 2453 2824 2352 3109 2641 2600 2241 2241 2227 1627 1545 1532 1650 2025 3002 3091 4046 3542 3026 1857 2508 2723 2223 2223 2121 2241 2669 2742 2898 2640 3260 3211 3425 3341 3020 2708 2769 3130 3354 3957 3957 4303 3959 3500 4266 4515 4375 4507 2270 3658 3632 2320 2414 3394 3037 3086 3086 3169 3725 4112 4855 3887 2507 1853 -452 1644 2452 741 1018 213 2 94 94 380 287 388 223 -139 -288 -385 197 23 474 -471 248 -155 -346 -469 -716 -716 -866 -1146 -1326 -1033 -1365 -1579 -1389 -1369 -924 -1489 -1779 -2225 -2151 -1479 -2045 -2045 -2824 -2760 -2807 -2783 -2516 -2598 -2697 -2562 -2246 -2140 -1243 -1077 -642 -450 860 860 944 1771 1239 963 539 501 623 997 877 900 909 204 210 1038 1183 1183 1907 -295 -110 -235 223 314 475 911 717 1208 995 381 74 232 1900 1261 1261 1883 2305 1252 -1011 -220 -451 -1716 -783 919 1247 188 -767 -1472 -1694 -1977 -1977 -1530 -2000 -2114 -2070 -2384 -2300 -2265 -2668 -2525 -2637 -2539 -2498 -2655 -2853 -2273 -2273 -1360 -1383 -1445 -1744 -1750 -1130 -1282 -1471 -1166 -1442 -799 -3382 -215 -479 -719 -907 -907 -1583 -1492 -1191 -890 -2081 -2041 -2478 -1306 -1620 -1709 -1276 -955 -785 -433 253 253 -649 301 298 261 567 1292 1595 1690 919 783 657 1385 2165 3359 2328 2328 366 862 4213 4371 4127 4420 5256 6431 5382 3670 4637 5088 5959 5350 3759 2859 2859 1876 2336 6835 4376 2087 1787 2594 2764 3267 3836 4303 3319 5033 4902 4148 4148 4203 2833 1719 1989 2079 -9 169 1205 1045 2093 3935 4842 4267 3204 2923 2923 3094 3729 3997 4241 3771 2593 2510 808 1328 4829 3909 3380 3287 4273 4988 4988 5560 2947 2272 2203 4217 1181 1453 2203 811 320
476 271 -564 -1031 -1088 -1075 -1075 -1026 -1874 -2037 -2493 -2972 -3445 -3344 -3135 -2836 -2256 -2511 -1290 -2133 -2751 -2382 -2382 -1782 -1733 -1520 -662 975 -1540 804 -538 -703 -1236 -1624 -1313 -765 2525 2101 1904 1904 1344 2643 1678 615 -9 121 -483 -590 -488 1169 1149 1680 1282 1329 2325 2325 2394 1905 2402 1933 1369 267 -74 -732 -381 -368 -970 -1227 -1460 -1146 -761 -761 -848 -1172 -1468 -1429 -1723 -1453 -1618 -892 134 -669 -1048 -452 -1840 -1145 -1500 -1500 -964 -670 326 799 1450 -1059 894 1393 543 150 -240 80 -30 141 -82 -178 -178 -229 -589 250 -3262 530 340 -2264 -3045 -3354 -3313 -3762 -3165 -2866 -2351 -2353 -2353 -2254 -2951 -3095 -3386 -3736 -3728 -3682 -3406 -2914 1710 1942 1892 1377 3298 1879 1879 2191 2067 2535 2199 2017 2025 2685 3000 2957 3013 3758 3718 2942 1896 1680 1378 1378 1532 1362 979 1051 1184 1298 1452 1457 1580 908 1281 1616 1787 1672 1943 1943 2393 1303 1138 478 65 1742 2504 1759 640 456 986 1088 1237 1365 1119 1119 812 1301 770 501 30 -6 -569 1015 1076 594 303 72 402 1251 1823 942 942 2323 885 939 1179 1401 1909 1276 1384 963 1597 2332 2211 1213 1385 3187 3187 2505 4050 3864 2646 3037 4110 4532 4290 1541 4028 5105 5056 5145 3937 2741 2741 2733 3008 3416 3968 4460 4897 4897 3224 3389 4803 5068 4717 2591 1594 1462 1462 1750 4142 4009 3825 4855 5871 2175 3409 3008 2332 1237 1405 1176 1583 3195 2512 2512 3885 4217 4317 3486 1633 3601 2475 2179 1848 2360 3358 4103 3437 2579 2266 2266 2511 2841 2063 1950 2435 3014 3148 4303 3986 697 489 2560 2009 1902 2118 2118 2808 2122 2206 2475 2441 2863 -174 3452 1957 3305 3076 3275 3538 3926 4128 3990 3990 4020 4331 4758 5530 5001 4442 4380 2431 4126 4218 3429 2431 3537 3310 3571 3571 1912 1740 2392 4218 4531 3919 4089 4188 769 2530 1407 747 542 349 -160 -160 -160 -699 -84 -273 -570 -191 -311 802 798 559 291 980 -25 -436 -329 -323 -323 -656 -583 -939 -1147 -1394 -1577 -1398 -1554 -2350 -3158 -1420 -1954 -1695 -2109 -2741 -2741 -2730 -2876 -2428 -2485 -2747 -2539 -2731 -2627 -2428 -2008 -1602 -850 -656 -131 695 695 720 1322 761 497 633 445 391 622 399 549 946 375 278 386 1028 1028 1372 -341 -375 -456 443 470 536 1198 968 1036 652 1135 414 43 301 177 177 -71 1890 2743 1358 435 -2442 -2634 -2772 1562 1252 -325 -801 -1785 -1938 -2199 -2199 -1693 -1877 -2303 -2377 -2341 -2441 -2048 -2116 -1932 -2607 -2341 -2894 -3271 -3076 -964 -964 -1373 -649 -1401 -2274 -2363 -2110 -1586 -1918 -1877 -1904 -1348 -3609 -1144 -290 -351 -662 -662 -1962 -2415 -1731 -1267 -2889 -2765 -2704 -2142 -1572 -1839 -1456 -1288 -1020 -21 18 18 674 181 175 87 497 1391 2012 1448 778 813 726 741 2396 2496 2259 2259 2758 3859 4837 4757 4633 5576 4338 4539 5238 5368 5389 4900 5595 5512 4373 2050 2050 2698 1468 2867 5170 3343 2416 2374 2584 3072 4133 2584 989 3598 5183 3291 3291 3079 3273 3727 1408 198 -466 -488 19 1476 1387 3690 3341 2965 2134 2171 2171 2201 2912 3356 2141 4395 4453 3754 1233 2678 4093 3863 3089 3812 3858 3482 3482 4945 2687 1988 1717 4536 3308 1628 228 -3 -35
1738 1678 -60 -576 -980 -1215 -1215 -1254 -1638 -2053 -2529 -2901 -3304 -3241 -3260 -2929 -1930 -3636 -3319 -1258 -2235 -2565 -2565 -2160 -1782 -455 -13 163 623 -27 -137 -804 -659 -615 -477 1693 2996 3098 2822 2822 3793 2682 1156 -191 -1198 -1202 -1586 -1176 -1089 -117 1032 1431 1248 1365 1660 1660 1703 1383 1528 -538 903 1386 452 143 43 -1214 -1515 -2325 -2610 -2532 -2839 -2839 -1666 -866 -1300 -1593 -1727 -1771 -2036 -1431 -2279 -2347 -2347 -1940 -1746 -1868 -1426 -1426 -627 -11 -330 -406 -798 -3517 764 869 1 -341 -488 -525 -123 -147 -234 -226 -226 -483 -479 -387 -80 339 776 -227 -3116 -3435 -3149 -3705 -2866 -3130 -4605 -5707 -5707 -2165 -3439 -3115 -3112 -3581 -3797 -3785 -3496 -1652 1626 1700 1633 2868 3129 2504 2504 1959 2100 2764 2225 2404 2253 2622 3137 3314 1506 2761 4106 2187 1845 1510 1222 1222 1337 1463 868 740 761 734 782 912 1187 1023 515 1131 943 1420 1220 1220 2233 3685 3813 2809 2159 450 -239 1486 496 451 1319 1753 576 1275 738 738 401 642 1141 720 519 375 672 1616 2044 1313 788 578 864 1148 832 899 899 1202 965 1615 1472 1564 1741 1795 1988 2361 2311 2889 1432 925 1015 2024 2024 2475 4186 3022 2064 2676 3137 3282 5577 6394 7627 4694 4574 4229 3634 2963 2963 3143 5189 5405 4524 4523 3745 4019 3807 3809 4203 4335 2774 2697 1951 1192 1192 1520 4758 4232 4216 5476 5067 2777 2589 2108 1925 1114 1689 1939 1586 2124 3042 3042 3073 3280 3923 4038 4284 1420 2941 2137 2744 3419 4461 3566 3846 2502 2180 2180 3677 2680 2656 2657 3074 2607 3306 3770 3141 1361 261 2583 1894 1866 2416 2416 2499 1877 2226 2345 2531 2971 2933 3246 3237 2974 2747 3007 3285 3526 3836 4434 4434 4221 3998 4811 3820 4966 2719 3335 2869 2941 2928 3042 2384 2763 2603 1727 1727 1466 721 857 2452 2187 2268 4700 3570 3292 3278 2350 806 494 -57 -379 -379 -336 -499 -395 -144 -497 -57 20 220 189 155 429 1454 -2013 -203 -499 -155 -155 -190 -518 -304 -650 -814 -925 -1179 -1452 -1847 -2075 -1929 -1601 -1803 -1890 -2585 -2585 -2741 -2458 -2671 -2616 -2534 -2206 -2545 -2202 -2374 -1888 -1797 -1249 -1774 -621 -48 -48 -67 419 566 525 546 625 403 537 436 750 1223 69 306 1321 1214 1214 81 96 -283 -255 502 241 224 673 928 277 337 32 -351 -313 -619 -358 -358 -326 -1539 3718 -496 -812 -2456 -1842 -2944 -89 357 -455 -1068 -1853 -2026 -2218 -2218 -2014 -1790 -2680 -2695 -2749 -2713 -2135 -2126 -1766 -2187 -1924 -1946 -1786 -1441 -2133 -2133 -1344 -1062 -1512 -1634 -1867 -2701 -2376 -2717 -2235 -2170 -1973 -568 -272 -512 -545 -1763 -1763 -2215 -2569 -2755 -2554 -3198 -3176 -3296 -3456 -1897 -1355 -1353 -1372 -955 -85 226 226 253 979 83 566 1190 1413 1717 1872 723 717 794 1346 2057 1346 2029 2029 1959 3025 3824 4380 3950 3490 3355 3444 4277 5053 4321 3867 4465 5205 4931 1883 1883 2413 2505 1895 3411 4919 3635 2746 3115 3469 3224 1278 1135 1547 3487 2704 2704 1522 1309 3455 -809 -139 -354 -404 84 994 3007 3375 2515 2453 2362 2085 2085 2314 3266 2872 2221 3930 5192 2913 4373 5045 3484 2569 2825 3119 3288 3409 3409 3266 3580 2360 2317 3109 1659 607 291 -31 -215
1467 386 -581 -354 -196 -791 -791 -656 -978 -1558 -1957 -2687 -3033 -3162 -3083 -2624 -1131 -5913 -6075 -1067 -2238 -2350 -2350 -2343 -1997 -1169 -652 -385 -156 -20 -325 -454 -487 -709 733 2647 1647 1671 1363 1363 1955 1761 1602 -307 -964 -1692 -2077 -2002 -1997 -793 1444 1483 970 1286 1412 1412 742 -831 -1965 -2302 -2335 -1567 1121 609 59 -1416 -2204 -2832 -3233 -3239 -3328 -3328 -3151 -2899 -2960 -3187 -2978 -2756 -2509 -1982 -2459 -2267 -1748 -1607 -981 -1250 -544 -544 -83 -507 -2274 -3138 -2388 -1791 818 1061 261 -178 -759 -475 -188 143 -672 -249 -249 -457 -497 -824 -95 -1920 -187 1528 -201 -3211 -3368 -3206 -2583 -2325 -3162 -2571 -2571 -2150 -2933 -2855 -2028 -2237 -3425 -3639 -3431 329 177 1735 2287 2493 3388 2835 2835 2267 2235 2381 2499 2039 2030 2527 2921 3209 1434 1052 3633 2670 2074 1680 1343 1343 1149 1208 964 741 517 469 507 549 296 431 -77 59 589 976 610 610 1254 3687 3205 3392 -480 -1314 -1275 1041 532 391 1192 1433 1070 1281 865 865 378 227 125 770 1168 2083 1390 1223 1492 2442 2336 2674 1826 564 889 1149 1149 1043 2685 2079 1534 1645 2201 2947 832 -83 2429 2314 2140 1433 1401 2928 2928 2683 3327 3527 2278 2040 2305 3076 5694 5181 5965 6965 3358 2696 2595 2327 2327 2983 3573 4390 3635 3504 3773 3437 2980 2594 3017 3532 3896 2191 2202 1890 1890 2715 3968 1559 1996 2115 2560 3804 2644 2462 1731 2130 2121 2423 2660 3242 2992 2992 2965 3636 3814 4149 4561 1589 4695 3155 3391 4463 3767 4482 4589 3235 3676 3676 4742 3628 3629 3229 3463 3510 3147 2810 3863 1892 3040 2202 2102 2295 1955 1955 2247 2218 2340 2138 2211 2599 2377 3102 3038 3169 2797 3189 3326 3310 3662 4034 4034 3270 4045 3451 1890 5209 4319 3017 2791 2764 2731 2477 2231 2448 2054 1133 1133 869 1198 1732 -62 -1034 -881 -689 1057 273 1937 3138 1190 307 -164 -282 -282 -420 -456 -2138 -417 -225 163 88 -200 601 705 183 1278 425 -35 -340 -132 -132 454 232 -115 -507 -692 -2483 -1925 -1533 -1508 -1603 -1668 -1695 -1280 -1879 -2035 -2035 -2663 -2317 -2435 -2564 -2304 -2187 -2443 -2367 -1869 -1180 -816 -823 -651 -549 -22 -22 339 572 258 226 559 903 326 452 843 1637 1205 254 1438 2174 1299 1299 304 81 5 -68 676 391 231 718 406 -160 140 -508 -381 -328 237 163 163 201 1552 3101 -92 -346 -1404 -1281 -1044 1222 -639 -961 -964 -1811 -2442 -2286 -2286 -2048 -1790 -2716 -2109 -2394 -2493 -2285 -1807 -1257 -1525 -1876 -1493 -1112 -1910 -1712 -1712 -1670 -1753 -1830 -1599 -1846 -2454 -2508 -2665 -1931 -2197 -1669 -1554 -857 -877 -1220 -2226 -2226 -2229 -2375 -2721 -3221 -3224 -3341 -3378 -3031 -2345 -992 -725 -849 -482 117 1198 1198 862 1782 1048 910 1170 1064 1247 1772 2534 1679 2457 2521 2015 1822 1797 1797 1886 2011 3089 3312 2868 2515 2822 2975 3689 3873 3896 4546 3306 3326 5003 4596 4596 2919 2085 2494 1918 4607 3227 1478 4101 4109 2765 1094 1203 1544 3314 2152 2152 1222 1078 2049 2183 1554 212 1213 714 1105 3238 3489 3249 3508 4239 3207 3207 4338 2683 1934 1012 1821 4182 4858 188 3822 2949 2108 2488 2769 2725 2925 2925 2915 2834 2318 2291 2760 1050 750 273 -437 -21
1860 1924 -1388 103 292 -44 -44 -527 -1055 -1632 -1855 -2387 -2769 -3002 -2946 -2421 -1132 -4041 -4759 -1346 -2412 -2262 -2262 -2207 -1948 -1028 -690 -347 -210 -43 -239 -174 -217 -887 -204 2047 1195 886 993 993 1511 1002 1076 -62 -1108 -1296 -1996 -1667 -1534 -165 502 917 929 926 532 532 -384 -1807 -2062 -2825 -2316 -2352 -1344 446 -882 -1449 -2613 -3170 -3488 -3468 -3733 -3733 -3523 -3209 -3200 -3031 -2730 -2964 -2718 -1965 -2211 -2124 -2301 -1879 -2006 -2213 -171 -171 -983 -7890 -8326 -6357 -4441 -5080 -1901 1192 126 -371 -720 -829 -825 -1103 -797 -641 -641 -734 -666 -467 -671 -2660 -2738 -4287 -3974 -1202 -3560 -2804 -2303 -2428 -1906 -3509 -3509 -2326 -2958 -2004 -1271 -1464 -3042 -3409 -470 333 323 766 2077 1501 1400 1963 1963 1678 2253 2470 2821 2482 1925 2412 2692 3143 2887 2814 2688 2710 2370 2009 1449 1449 1083 909 691 405 102 12 -31 77 -111 11 -192 -315 470 672 533 533 1395 2818 2522 2367 -891 -1994 -1561 2169 857 1378 2084 1633 580 806 912 912 605 439 276 658 2068 1894 1044 853 630 2475 8 -268 1255 1928 1510 1473 1473 2464 2555 2193 2693 2792 2498 3300 -1230 -1394 771 2232 2180 2485 2520 2688 2688 2583 2984 4498 4943 4520 3910 4553 4706 4356 4746 5854 3506 2994 3225 1873 1873 1985 3000 3611 3838 3053 3189 3314 3092 2388 3181 4712 4140 4612 3177 3095 3095 5253 3373 2089 2920 2724 939 3519 2482 1890 2018 1877 2017 2355 3124 2569 2229 2229 2767 3402 3893 4567 4878 3938 2750 3071 3023 3887 2912 911 1719 5072 4779 4779 4938 5137 4507 3985 4046 3794 2412 3161 3768 2790 92 1857 1850 2005 1278 1278 1605 2585 2530 2444 2631 3081 2556 2592 2967 3163 3407 3140 3016 3776 3593 3353 3353 3453 3540 4216 4708 3773 3691 2979 2871 3086 2809 2687 2374 2995 1488 789 789 318 634 1187 -775 -1185 -1311 -1307 420 -269 -723 2527 1439 787 226 -11 -11 -330 -455 -618 -527 -167 153 658 795 583 266 346 397 393 29 -142 -103 -103 328 579 381 804 471 254 780 -979 -1340 -1408 -1682 -854 -981 -1797 -2223 -2223 -2312 -2420 -2529 -2520 -1942 -1934 -2090 -1950 -1835 -1550 -1689 -666 -275 -434 -111 -111 220 921 249 270 614 673 288 401 602 724 1335 1454 -489 -1609 1415 1415 132 191 695 548 321 30 406 955 836 598 810 -381 85 435 1206 1441 1441 1432 2202 2146 2810 2052 2211 1276 1140 11 -1000 -1478 -1589 -1769 -1832 -2087 -2087 -1742 -2215 -2095 -2791 -2586 -2137 -2155 -2030 -2610 -1881 -2396 -1078 -1440 -1470 -1781 -1781 -1551 -1550 -1458 -1268 -1460 -2337 -1953 -1917 -1332 -1954 -1441 -891 -64 377 -612 -1397 -1397 -1923 -1937 -1909 -3248 -3290 -3274 -3104 -2372 -2101 -1360 -579 -208 -258 507 1218 1218 1253 2254 2194 1534 861 789 946 1424 1983 3241 2739 2525 1862 1489 1229 1229 1943 1739 2074 2967 2621 1941 2397 2824 2566 2512 2608 3777 3057 2343 4462 4396 4396 3197 2215 2840 2639 3138 -392 582 4777 6490 6053 3312 2804 3908 5013 1715 1715 1060 887 1088 962 2000 1262 2594 2928 2616 3028 2278 2411 5304 4365 3759 3759 2943 114 35 148 848 2105 278 1275 4619 3563 2914 2481 2133 2596 2694 2694 3379 4162 2643 4445 4259 1890 478 -99 -647 -28
1641 800 -891 -1167 679 -68 -68 -444 -829 -1096 -1363 -1852 -2322 -2626 -2481 -2288 -1784 -1620 -2251 -2292 -2415 -2483 -2483 -2004 -1648 -1179 -578 -175 -7 240 75 773 879 729 2425 2737 1812 896 1457 1457 990 1560 415 265 -928 -1061 -1440 -1630 -1538 -1007 585 425 650 547 348 348 -88 -1596 -1731 -2552 -2872 -2764 -1632 -595 -1152 -2292 -3216 -3264 -3633 -3159 -3602 -3602 -3597 -3378 -2560 -3042 -3324 -3284 -2934 -1953 -1583 -1513 -1560 -1731 -724 -919 -789 -789 -4035 -8542 -9148 -7937 -4927 -4855 -3615 -744 521 316 -423 -379 -274 -601 -653 -229 -229 -406 16 16 967 -3402 -2399 269 -591 -1260 -3069 -3152 -2664 -2469 -2425 -2054 -2054 -2054 -2604 -2125 -1737 -2133 -2621 -451 361 -106 171 362 1759 1465 2121 2330 2330 2414 3412 3396 3043 2730 2286 2532 2701 2656 1846 2340 2459 2707 1717 1447 965 965 829 489 399 240 -84 -141 -115 -69 -223 -153 -626 -679 -65 963 937 937 1353 2324 2233 1299 1545 743 -141 -565 718 1459 1256 2719 1126 1094 1109 1109 1044 1554 887 2105 1901 1307 743 740 1100 1474 -679 -520 245 3119 3672 3307 3307 3782 4116 2274 1212 792 1727 3552 544 -1360 2358 1627 2077 2081 2335 2551 2551 2086 2742 3076 4140 4635 3609 3695 4207 4070 4037 3806 5375 5206 2764 2647 2647 2563 3298 3233 3041 3235 210 3241 3365 3507 4351 4314 4369 4406 5643 6411 6411 6199 4404 2551 2461 598 1848 2894 2009 1846 2588 2719 1235 3175 3366 2997 1978 1978 2667 3085 2436 1684 2296 1988 2090 2296 2469 2357 1041 661 680 1910 5529 5529 5567 5770 4359 4809 5609 3014 2874 2990 2957 2183 -840 -1787 2697 1161 1085 1085 1244 2102 2027 2174 2288 2516 2807 2369 2688 3628 3808 3395 3219 3360 3295 3130 3130 3265 3675 3595 3559 4060 1483 3735 3156 2792 2954 2821 2097 2558 2282 1025 1025 355 420 1061 748 -1010 -1461 -395 631 -186 -503 1981 1409 179 98 -121 -121 -345 -617 -480 -236 -127 -667 210 102 557 365 311 392 533 380 137 272 272 481 854 1042 810 651 405 319 -3049 -998 -1089 -988 -3999 -1392 -1445 -1978 -1978 -1848 -2369 -2313 -2386 -1704 -1619 -1488 -1690 -1580 -1281 -513 -474 -440 -166 -101 -101 248 807 337 582 608 508 418 797 737 931 1311 1578 1775 1143 -1796 -1796 810 304 272 755 304 120 -1186 945 1762 95 1923 -442 1308 1784 1266 730 730 1515 1706 1068 1230 1127 505 -608 366 -557 -883 -1261 -1171 -1400 -2012 -1901 -1901 -2205 -1709 -2950 -3228 -3409 -2037 -1967 -1893 -2045 -1994 -1978 -1819 -2428 -2287 -1753 -1753 -1356 -1631 -1127 -970 -1199 -1709 -1516 -1629 -1822 -932 -848 -73 570 15 587 -32 -32 -1421 -841 -1300 -1899 -2391 -2907 -2737 -2584 -1192 -606 -721 -141 793 1027 1187 1187 1739 1709 1852 2454 1311 943 622 1359 2364 2598 3505 2937 2766 2142 1395 1395 1928 1745 1491 1571 1790 2584 2901 2705 4173 590 -724 2483 3370 2775 2643 4619 4619 3979 3037 2432 3857 4564 1658 1734 4679 4103 4124 3907 3243 3086 4082 3495 3495 1851 1148 998 1004 1003 1106 1474 1482 2915 3493 4694 3635 5407 3557 2500 2500 1035 -292 -371 -298 -220 428 2820 3353 3063 2429 3076 3004 2746 1949 2914 2914 1995 175 3054 3340 2702 719 -1124 1 -293 293
561 -209 248 7 1012 107 107 -358 -708 -866 -1084 -1145 -1799 -2042 -2152 -2107 -2162 -2271 -2279 -2077 -2092 -1941 -1941 -1728 -922 -1031 -207 64 402 498 899 175 258 1036 1518 2679 2215 1259 889 889 1123 620 761 148 1 -329 -483 -918 -1044 -531 309 -442 428 571 -914 -914 -134 -992 -1494 -3027 -2805 -3149 -2574 -1068 -1493 -2242 -3147 -3385 -3793 -3471 -3503 -3503 -3469 -3616 -3440 -2990 -3159 -2789 -2955 -2196 -2492 -1482 -1774 -1394 -847 310 -4118 -4118 -4710 -5107 -5667 -4404 -5239 -5467 -5012 -3722 213 241 -68 -168 90 -730 -340 -553 -553 -477 -272 -480 -581 -826 -1220 -1236 -1136 -1362 -968 -2851 -3063 -2980 -2589 -2978 -2978 -2460 -2484 -2471 -2308 -2082 -1706 -1764 -542 -1 -138 854 542 1252 2400 2067 2067 3718 3351 2913 2620 2356 3206 3613 3348 2824 1744 2246 2032 2480 1743 733 589 589 668 473 -1713 461 -137 -328 -126 -109 -295 -490 -765 -612 -412 896 881 881 1547 739 1870 1950 1950 1690 2086 1155 92 1839 1783 2851 1649 1385 926 926 1152 1162 2905 2291 1956 1331 794 818 1297 1951 -687 -700 2264 4079 3241 1459 1459 2088 930 55 -78 -298 -110 1179 3168 2413 2257 1721 942 1825 2003 1580 1580 1314 1492 2220 3022 3714 4218 3632 2250 4098 3828 3878 4567 5404 3871 3504 3504 3999 3753 2890 2858 3182 2997 2458 2237 3850 4530 3879 4117 4181 4769 6401 6401 7005 7002 3418 2084 1733 4105 4504 2934 2679 2992 2679 2878 3392 5007 4441 2943 2943 3283 2048 1333 1532 1777 1749 1964 1502 1576 2736 1088 925 960 2087 4717 4717 5732 5391 3921 3097 1857 3683 3065 2153 1738 2114 77 1773 1066 939 504 504 953 983 1197 2150 822 2112 2619 2075 3028 1518 1419 3790 3772 3268 3268 3746 3746 3218 3222 3666 3708 646 479 1915 2812 2710 2951 2658 2507 2742 3452 3111 3111 659 157 894 3122 4345 2354 3374 546 101 1904 1717 706 271 -86 -877 -877 -307 -1012 397 -92 -124 559 -22 -325 294 677 825 1130 -280 850 614 551 551 409 949 876 506 237 373 -187 -205 -725 -1249 -861 -490 -473 -1456 -1560 -1560 -1791 -2393 -1321 -2069 -1674 -1785 -1274 -1512 -1420 -1147 -448 -659 -726 -264 146 146 293 498 471 759 465 908 548 323 773 874 852 913 874 709 464 464 1215 518 672 699 621 441 -364 203 498 -425 -809 -520 -528 1062 790 521 521 388 84 66 28 -336 -629 -599 -514 -379 -543 -628 -927 -1334 -1648 -1221 -1221 -751 -1742 -1875 -3282 -3331 -2822 -1688 -1311 -236 -1397 -1603 -2307 -2776 -2383 -1216 -1216 -772 -992 -560 -556 -299 -367 -87 -881 -1478 -971 -993 -538 -1411 -838 934 -70 -70 -1031 -1732 -2018 -1848 -1750 -2016 -2250 -1899 -868 -655 -400 -148 322 1044 1310 1310 2013 1461 2171 1466 1898 1448 1736 1118 2973 2645 2713 2692 1996 2017 1930 1930 1846 1929 1931 1322 1750 1923 1931 2479 3309 -724 760 78 3790 3666 2555 3052 3052 2856 3960 5219 5174 4450 4514 4551 3559 2845 2796 2979 3032 2726 3130 4562 4562 2655 2107 1418 1393 1515 1335 1507 1842 2315 3009 3436 -234 1802 2008 2039 2039 975 -525 -554 -579 -281 -233 1597 2839 2307 2205 2400 3214 1772 2158 2515 2515 356 409 -70 473 3312 1307 226 1246 849 905
-218 291 1258 -400 -195 245 245 -115 -714 -817 -967 -1125 -1271 -1276 -1448 -1657 -1764 -1797 -1460 -1756 -1773 -1366 -1366 -1128 -660 -341 1162 -524 2435 1528 246 -89 725 1543 1783 2263 1794 1845 1872 1872 1844 1300 882 723 168 921 1414 1141 624 321 125 412 1178 -257 -892 -892 1011 -883 -3771 -3808 -4820 -1955 -1475 -1382 -1560 -2619 -3533 -2891 -3592 -3630 -3594 -3594 -3470 -3415 -3263 -3464 -3244 -3055 -2587 -2609 -2290 -1921 -1821 -1518 -1015 -236 -3546 -3546 -5921 -5395 -5055 -5746 -6208 -5680 -5770 -4376 -299 408 554 -115 303 21 -188 -254 -254 -295 -404 -436 -805 -1777 -2167 -1508 -1815 -2330 -1863 -2116 -2825 -2867 -2884 -2472 -2472 -2089 -1947 -1502 -1515 -2073 -221 -417 289 145 1092 1184 2015 2535 2671 3516 3516 2950 3821 3237 3419 3585 2758 3498 2965 2178 2707 2239 1809 2166 1889 1088 649 649 388 197 -192 -34 -137 -142 -39 -129 -575 -1025 -877 -865 -71 1730 2310 2310 1812 1474 1619 1548 1132 1787 2344 2007 483 1981 2063 2050 1791 1679 1960 1960 1661 1993 3460 1581 2103 1395 952 960 992 899 1498 1716 1487 2839 2442 1258 1258 1024 -71 -362 -322 -347 -348 -29 1896 3047 2098 1557 1732 1842 2151 1690 1690 1679 1719 2524 2995 3222 3897 2812 3852 3980 4098 4113 4119 4079 4335 4141 4141 4422 4166 3456 2861 2670 2025 2186 2584 3069 3686 4588 4694 4745 6421 6344 6344 7731 7476 4389 4765 5351 5070 4976 5755 4816 3836 4254 3509 4226 4626 6623 6223 6223 3892 1610 1898 2042 2150 2061 1713 1684 1693 3473 2175 1242 1808 2404 3524 3524 3766 2885 1812 1512 899 1604 2871 2103 215 700 1275 276 -420 -143 59 59 91 26 703 937 1383 1542 1792 1585 2766 2493 3273 3438 3769 4013 3120 3577 3577 3815 3773 3792 3436 2308 2284 3629 2705 2573 2561 3036 3083 3182 2674 2367 2367 1953 2270 1710 2947 4645 3737 3252 2953 3278 2776 1107 360 -230 -342 -847 -847 -430 -1056 -604 -292 -232 743 -203 -44 167 1212 1412 1362 1637 1643 985 423 423 618 782 658 474 140 446 -270 -370 -566 -788 -985 -854 -865 -1611 -1249 -1249 -1585 -1291 -1391 -1357 -1533 -1161 -830 -872 -1082 -860 -650 -244 -345 46 137 137 345 527 749 568 859 228 458 730 1071 795 1118 671 358 279 -122 -122 658 1010 535 423 741 167 47 -410 -689 -318 -216 -947 -482 -574 -66 166 166 -148 -628 -724 -1318 -1101 -1025 -900 -1403 -1059 100 -497 -891 -1620 -1887 -668 -668 -1935 -5102 -2653 -2565 -3068 -2285 -2150 -1035 -711 -1591 -1509 -1860 -2730 -1874 -979 -979 -414 -455 332 543 676 -49 -64 733 -1528 -612 -683 -1520 -1708 -2087 792 1034 1034 216 -447 -1381 -1570 -1394 -1281 -1469 -281 384 632 652 -113 806 870 1654 1654 1067 1171 1479 2222 1102 1578 1777 2949 2078 2820 2448 904 2155 1267 1888 1888 1634 1608 2035 1457 1451 1718 1692 2805 3714 -311 -758 1051 3707 2421 2845 3207 3207 2655 3560 4745 5163 5052 4402 4349 4059 3215 3436 3596 3914 3546 3457 -75 -75 3025 3780 3156 2288 2491 2284 2458 2749 2896 3335 2900 2653 4099 2588 1724 1724 1648 -406 -734 -609 -230 -150 886 2675 1877 2042 2512 2057 2172 -1131 2264 2264 3418 1713 56 1031 1428 1973 -424 2116 1000 2052
1799 1414 1566 -1695 -1160 7 7 -89 -130 707 689 556 -503 -1023 -959 -1210 -1378 -1351 -1079 -1257 -881 -585 -585 -395 -88 436 2363 -176 995 866 -91 86 474 621 1237 2323 2281 2520 1629 1629 1591 1432 1415 756 744 986 1273 900 1117 647 374 439 603 -423 -46 -46 -311 -816 -3680 -4249 -4546 -174 -1406 -1563 -2037 -3711 -2196 -2629 -3409 -3378 -3613 -3613 -3564 -3477 -3338 -3181 -3345 -3212 -3168 -2696 -2498 -2484 -2108 -1763 -1139 -493 -3321 -3321 -5624 -5848 -5873 -6011 -6331 -5705 -5675 -4258 164 239 366 750 511 -18 159 -288 -288 -237 -208 -551 -1050 -1596 -2215 -2315 -2290 -2767 -2557 -1617 -1997 -2936 -2751 -1929 -1929 -998 -3726 -4084 -1647 -510 -338 -2913 -544 -1303 -629 255 1317 295 2031 3084 3084 3932 4897 3551 3682 3869 4300 3077 2493 2716 1886 1369 1744 2008 2073 1733 856 856 559 82 -152 -182 -235 -226 -230 -70 -608 -339 -570 1215 2663 2474 2583 2583 2071 3272 1324 1612 1112 1300 1986 2965 2248 3280 3010 2620 1870 2017 2982 2982 2282 3306 2404 1448 2873 1789 1462 1216 726 838 568 710 987 2352 4288 2040 2040 701 -279 -408 -397 -435 -415 -157 1020 3843 2297 3031 2460 2058 2230 2773 2773 2383 2466 3185 4192 5005 4967 3548 3135 3388 3290 3641 3850 3393 4783 4208 4208 3631 3118 2459 3088 2229 1957 2305 2827 3411 4010 3965 4684 3760 2942 2960 2960 4141 5590 3998 3874 4598 5030 5431 5219 5176 5398 4580 5581 3910 4260 5065 4561 4561 2342 2163 2481 2365 2515 2527 2397 2208 1889 3047 3206 3976 2656 1406 3271 3271 2395 981 1183 1511 1276 586 2118 1916 1051 138 -399 -435 -783 -432 -456 -456 -356 -489 -89 350 455 719 1016 1466 2293 2688 2746 2930 3268 3902 4520 4141 4141 3943 3957 4017 4349 3117 2418 3605 3752 3574 2858 2837 3178 2722 2417 2563 2563 3517 3766 4072 3284 3647 3188 3222 2618 2492 2666 2511 1881 1004 299 37 37 173 -232 98 -412 189 -150 115 365 309 1161 1564 1752 2383 2101 1441 618 618 580 690 984 892 350 542 130 -168 -552 -135 -514 -482 -3324 -2983 -767 -767 -1080 -1003 -1132 -1407 -1230 -646 -164 -401 -531 -670 -288 -692 -139 127 172 172 329 696 647 669 377 516 816 1251 1213 24 932 42 198 61 910 910 -2521 446 -220 74 567 314 -318 -224 -571 155 -642 -980 -811 -149 -337 -334 -334 -378 -781 -1156 -1768 -1796 -1720 -1567 -1450 139 -463 -1088 -1476 -1723 -573 -2040 -2040 -2153 -3749 -1434 -1746 -2450 -2700 -2416 -2016 97 -962 -388 -1629 -1616 -1135 -176 -176 592 -25 644 1074 174 -492 -1066 -1498 -1584 -2271 -2427 -2102 -2116 -1927 326 1428 1428 1474 49 -601 -1334 -433 -478 923 474 1317 1024 352 367 444 935 667 667 1568 1143 1123 1275 1237 1442 1505 2671 2516 2623 1408 1148 -1080 -1037 2308 2308 1411 1511 1716 1855 1658 2159 2698 2648 2950 3576 3411 3690 3474 2679 5192 5528 5528 4896 5251 4055 5060 5348 4133 3614 3932 4637 4838 4072 4614 3301 3105 -1086 -1086 1612 1517 2481 3926 3877 3753 3020 2878 2566 3280 3416 4245 5200 4440 2092 2092 2029 1496 -111 -91 999 2046 2136 2525 1766 1980 2737 1678 2739 2894 3275 3275 1694 1851 1606 1707 1014 1571 1780 33 -255 804
2294 2435 1789 -773 -735 -747 -747 96 89 927 -2715 -2578 779 -281 -717 -1078 -1194 -647 -310 129 446 474 474 648 969 2053 3015 1537 698 377 558 374 514 1392 3202 2274 1772 2569 1627 1627 1531 2093 1604 1575 1787 1171 1310 1350 1068 1335 899 1072 312 259 101 101 -282 -284 -2537 -3926 -2048 -1128 -1273 -1935 -2580 -2599 -2735 -2876 -3184 -3423 -3625 -3625 -3621 -3328 -3230 -3400 -3249 -3501 -3106 -2935 -2463 -2430 -1896 -1814 -823 -478 -801 -801 -5362 -5846 -5429 -5927 -6122 -6177 -5053 -907 -162 -768 -680 968 428 185 383 606 606 275 231 -402 -624 -1585 -2088 -2206 -2740 -3188 -3133 -1907 -4657 -2163 -2459 -1674 -1674 -2234 -4144 -4307 -4010 -298 -518 -625 -1860 -2258 -2232 -1814 -1300 -232 1878 2738 2738 3795 2294 4767 4415 69 3235 2574 2533 1885 1179 687 827 1476 3024 2629 1423 1423 -378 464 638 119 317 -71 54 1883 1647 1145 1829 1731 1451 1001 1724 1724 343 1105 1398 130 384 765 1257 2048 2262 2855 3090 3231 3496 3408 3708 3708 4170 4165 4086 3119 810 2368 2415 1145 576 609 1241 996 1042 1459 2867 3672 3672 3077 148 -158 -301 -452 -441 317 1903 3877 2709 2330 1628 1763 2481 3259 3259 3118 3177 3328 3883 3030 3826 4362 3588 2919 2892 3134 3526 3968 4586 5102 5102 4179 3248 2634 2587 2875 2542 2740 3783 2762 3329 3094 5385 3979 2583 2988 2988 3721 4734 5159 4064 3925 4856 6147 5668 5722 5998 3697 2465 2048 4194 6319 4316 4316 3739 3504 2937 2866 2901 2572 2798 2740 3374 3162 3246 3338 3918 3668 2632 2632 1955 1063 155 15 703 824 2313 1562 851 -150 -217 -32 -350 -191 -318 -318 -527 -322 -155 -484 -287 348 164 804 1221 1908 2575 3478 3712 4054 4707 4031 4031 3871 3942 3915 3833 4096 3736 3897 1824 603 1153 3731 2576 1791 2949 2639 2639 2975 3155 3264 3453 2681 2634 2280 2608 2844 2578 2515 3460 2261 1327 400 400 604 -7 -128 -175 370 344 279 834 1038 1562 2048 926 2029 2228 2165 998 998 784 549 754 929 874 -24 558 -5 -71 -287 336 892 -2118 -2352 -670 -670 -834 -679 -553 -764 -447 -1934 -2109 -1480 109 -151 -186 803 391 163 264 264 636 -1623 963 771 947 1381 941 997 881 1486 459 -93 96 194 -543 -543 -220 -133 461 -246 728 412 -112 -289 312 -169 -661 -525 30 1115 -641 -692 -692 -912 -1412 -1539 -1969 -1913 -1692 -1463 -1056 636 -954 -1661 -1897 -1407 -774 -5353 -5353 -4985 -1374 -1913 -2535 -2436 -2428 -2289 -1774 -190 134 -390 -1224 -706 -585 1040 1040 444 1168 -541 -684 140 -1677 -2224 -2024 -1967 -2047 -1914 -2173 -2517 -2292 -1727 -1151 -1151 2176 1172 1262 1025 -198 1464 1017 1151 1331 1015 726 1117 338 294 604 604 721 591 748 1288 2058 949 1773 1757 2936 2457 1230 1754 1070 377 2174 2174 1892 1892 2052 1949 2115 2421 2300 2739 2769 995 865 1593 3458 4501 3632 4728 4728 4591 5917 4620 3962 5413 4264 3443 3981 4675 5039 5303 4527 3505 3202 3085 3085 2259 1398 1555 2475 2968 3310 3463 3134 3458 3912 4505 1698 417 2157 6219 6219 2612 2950 3123 3400 3026 563 2675 1795 1655 1783 3234 3772 2906 1760 -200 -200 1604 1737 1082 1153 769 2222 429 -67 -266 38
1806 2179 1886 1687 708 9 9 -519 -96 1308 -2609 -2457 1121 390 -112 -621 -555 -136 380 866 964 1341 1341 1889 2059 2453 2213 634 513 1197 1672 2501 1253 1799 2779 2137 2129 1821 2133 2133 1694 802 439 1405 918 730 1446 1009 1444 1149 293 199 188 760 533 533 357 386 -1619 -1940 -1532 -2092 -2077 -1978 -2627 -2791 -2633 -2722 -3090 -3517 -3336 -3336 -3482 -3473 -3363 -3210 -3224 -3206 -3324 -2925 -3205 -2512 -1816 -1547 -1032 -633 -722 -722 -2340 -5658 -5528 -5736 -5407 -4528 -2155 244 19 -673 -730 -140 363 163 265 394 394 203 108 -636 -915 -1263 -1853 -2180 -2670 -2707 -3246 -2769 -2653 -1892 -1646 -1334 -1334 -2266 -3786 -3745 -3043 -969 -2570 -2594 -2440 -2270 -2163 -1610 -1171 -1112 -594 2321 2321 2784 5621 5275 4069 2263 2234 2236 2914 3258 1318 781 669 470 2192 692 3263 3263 3412 3719 2900 2873 2324 2153 1820 1492 726 167 339 235 -343 -343 -218 -218 -545 410 898 -443 -436 -66 639 1136 1634 1495 2282 3415 4150 3441 2982 2982 3349 4095 5716 1580 669 1094 1687 1562 562 638 690 916 1076 1750 1988 3872 3872 4495 906 -82 -357 -456 -123 1009 3024 3121 2582 2247 2289 2368 2498 3579 3579 3367 3522 3791 4165 3164 3471 4224 4483 4032 2980 3265 3729 4246 4744 3827 3827 3615 4133 3957 2996 2677 3726 3688 3940 3868 4298 3983 4370 5248 2641 2716 2716 4561 3113 1452 4382 4128 4501 5213 4952 4330 2344 2069 1951 1731 1347 2208 4013 4013 4369 4401 3484 3058 3168 3094 2820 3504 1612 2927 2842 4368 2808 1425 3095 3095 1485 727 202 141 488 1360 2489 1815 -157 -197 -440 -395 575 198 438 438 -33 -74 -360 -523 -481 -247 -16 473 657 1452 1842 2810 4013 4209 4805 4961 4961 4411 4528 4913 4614 4404 4161 2155 -139 304 -363 -696 1800 1803 2092 2006 2006 2278 2154 2858 2162 2186 1869 1819 2084 3119 3024 3063 2912 -462 2375 920 920 1964 1593 1059 742 664 525 647 745 1233 2328 -14 -1470 -1410 -589 2088 1899 1899 1309 739 677 1198 1172 1227 187 -86 -58 230 743 -531 2 422 -454 -454 -103 -622 -295 -519 -392 -43 -1063 353 552 138 84 667 1032 520 775 775 573 655 737 441 881 1357 1613 1430 2066 2175 1527 211 -1247 576 -635 -635 -804 -1854 -2697 -331 -39 656 110 -558 110 -600 -872 -798 240 1368 976 -218 -218 166 -556 -629 -1767 -1795 -1742 -935 922 102 -1473 -1901 -1633 -1602 -1159 -1637 -1637 -2272 -1231 -2118 -2140 -1780 -1114 -2537 -1104 -56 614 -327 -395 -1763 -1658 -1442 -1442 -1313 -1596 -2134 -2516 -2074 -2045 -1965 -2173 -1987 -2170 -2248 -1883 -1978 -2183 -2126 -2011 -2011 -1635 -1257 279 505 2052 2112 1221 2109 2258 1886 1792 186 187 -110 136 136 -45 303 667 1486 1752 -282 262 167 1769 3062 2203 1870 1582 2039 2032 2032 1748 1653 2000 2111 2468 2462 2178 1881 2664 2769 630 3946 4091 2909 1764 3001 3001 2538 3710 5000 4866 5404 4811 4446 4789 4784 5030 4022 3731 3625 3524 3133 3133 2773 2240 1964 2408 3021 3753 4143 4327 3016 4259 2022 665 393 348 2050 2050 1616 943 2498 1664 1690 2160 1649 1956 1638 1924 2645 3501 -1224 1969 363 363 1474 1523 1180 946 988 1363 1698 517 376 41
1962 1875 2018 1740 1568 -1085 -1085 -821 -67 382 -330 693 483 474 461 751 1083 1375 1406 2043 2205 3351 3351 1437 3240 2611 1479 783 1253 2642 2244 2263 5363 2744 2776 2073 1844 2312 1431 1431 553 14 113 578 801 497 -165 -235 -457 -742 414 469 334 1147 1083 1083 505 -421 -2153 -2496 -2201 -2209 -1823 -1776 -2421 -2698 -2761 -2628 -3025 -3251 -3083 -3083 -3337 -3459 -3344 -3270 -3000 -3000 -3038 -2852 -2859 -2888 -2326 -1371 -1513 -1685 -1171 -1171 -609 -419 -2280 -2965 -3063 -1528 -776 -593 -635 -1564 -1360 -5 174 359 48 500 500 514 259 -111 -518 -568 -976 -1801 -1855 -2544 -2662 -2330 -1683 -963 -1602 -1790 -1790 -797 -1207 -1529 -486 -2175 -2548 -2634 -2402 -2273 -2064 -1517 -1109 568 -754 191 191 2745 4440 5364 4113 1941 1519 2346 2609 1014 1505 1571 1651 2569 3285 2931 2477 2477 2833 2486 2095 1430 1567 1281 1503 437 -558 -924 -506 -2963 -210 -596 -691 -691 -988 -35 934 -300 -352 -164 382 679 494 1233 2564 418 588 2642 3381 3381 3926 3720 2691 1067 1202 1325 1491 2758 1162 794 1064 1128 1047 1660 2584 2824 2824 4124 2641 1617 596 1251 2353 3995 4121 2947 2070 2920 2604 2612 2910 4110 4110 4345 4051 3721 3679 3678 3504 3942 3570 3220 3183 3507 4320 4562 3798 3154 3154 2984 2502 3292 4357 4210 4512 4168 5387 5269 4884 4851 4630 4270 5437 6831 6831 6083 4445 2447 4970 4118 4131 4688 5317 2237 1034 1184 1893 1741 1463 2605 4031 4031 4778 3943 3937 3100 2901 3219 2459 2380 2502 2268 2521 3834 -957 902 2676 2676 987 123 -18 -96 51 812 1612 824 522 -466 -518 -294 -490 -560 50 50 -958 -41 -88 -347 -206 -172 -73 -92 340 761 1336 2297 3274 4523 3468 4177 4177 5284 5317 5124 5114 4986 4630 2633 -247 770 258 651 802 1680 2359 1835 1835 2292 2041 2631 1892 2013 1611 1764 1665 2082 3380 3992 4386 3825 2783 2807 2807 2065 1765 1987 1744 1762 1198 1221 1119 1696 1772 -1736 -1759 -1285 -474 1626 2978 2978 915 1302 834 1952 469 -466 577 211 -30 516 937 -419 596 512 95 95 220 -150 -256 -219 -236 174 463 277 1391 -2049 -2900 -2909 894 516 320 320 428 217 833 730 1414 1785 1812 1417 -2443 -2596 -872 1459 652 -248 -663 -663 -676 -600 -745 -580 -43 1024 -1064 -463 -581 -1077 -1097 -827 1307 1914 1341 -160 -160 -604 -835 -1070 -1359 -1614 -742 -595 135 -564 -1317 -1840 -1680 -1153 -1487 -1939 -1939 -1962 -1821 -1810 -1725 -1615 -599 -3467 -4004 161 652 -519 -1760 -1962 -1846 -1911 -1911 -1984 -2165 -1714 -2048 -1882 -1941 -1387 -1085 -1353 -1308 -777 -1490 -1400 -1634 -1760 -1809 -1809 -1784 -1176 -887 1496 2457 2642 2534 2333 3261 2076 1872 201 0 -18 -222 -222 229 457 1327 1975 1138 951 1404 748 1272 2579 2091 1869 1873 1804 1712 1712 1809 1840 1532 1816 2357 3145 2072 2184 2738 2338 2752 3155 3623 2875 2291 2772 2772 2319 2927 6482 2527 601 451 34 3376 4778 4928 4096 3183 3451 3659 3522 3522 2803 2388 2327 2633 3135 3853 4307 931 1124 1471 3103 699 610 339 1419 1419 1243 1383 1857 1646 1459 1673 1738 2225 2817 3619 2875 1221 1693 2452 1080 1080 1012 1142 1254 941 1738 1578 1766 2317 2078 2063
1648 1930 1893 1267 1648 1255 1255 260 -149 -179 -324 -43 -112 -413 529 826 1052 1476 2029 2342 1973 1352 1352 761 2424 3067 2619 2264 2188 3490 82 2978 4042 3562 1897 1440 1891 2028 2069 2069 1355 592 112 624 1551 214 -389 -1341 -1097 -1060 -238 759 426 907 1918 1918 804 -1879 -1589 -2011 -2413 -1923 -2093 -1729 -3099 -2766 -2797 -2963 -2897 -3018 -3040 -3040 -3168 -3524 -3245 -3331 -3065 -2794 -2652 -3011 -2866 -2792 -2290 -1756 -1272 -2110 -2274 -2274 -1775 -1198 -542 -651 -901 -862 -1511 -1739 -1730 -1000 -1355 -1179 81 -105 243 49 49 208 164 54 -271 -467 -742 -1580 -1076 -2604 -1310 -1779 -1685 -640 -601 -456 -456 -1012 -765 -556 -1253 -2284 -2314 -2445 -2442 -2304 -2207 -1904 -994 -780 -305 154 154 1081 2347 4121 3504 2682 2075 2239 2097 1503 1847 1563 2481 2054 2838 1889 1106 1106 661 546 113 68 316 -156 -405 -806 -1255 -1590 -1331 -1396 -1012 -1175 -900 -900 -1244 56 -102 1241 -230 -408 -109 277 350 511 1703 -114 161 1438 3356 3356 3315 3225 3992 630 744 784 3616 3233 2079 2190 1415 1182 1648 1737 2796 2177 2177 2829 3277 4379 4281 5115 5004 4935 3847 3457 3533 3096 3169 3987 4063 3472 3472 4444 3192 4863 4157 3607 3798 3744 3437 4224 4177 4044 3626 3970 3308 2736 2736 2853 2870 3300 3455 4345 4867 4930 4791 6163 5255 4915 4739 4507 5716 4817 4817 3397 3688 4448 3942 3474 3422 4665 4778 2664 1092 1308 2096 1498 1567 2246 3011 3011 5051 3723 3297 3572 3321 2666 2038 2401 2019 1637 1872 2769 3232 2740 1722 1722 971 87 -192 -331 -123 -216 185 175 -147 -373 -730 -588 -839 -330 -931 -931 -625 -698 -740 -397 -555 -84 -72 -731 -89 346 949 1744 2675 3742 4946 4312 4312 2903 1563 1159 1803 4318 5493 5317 1573 1042 745 2818 2741 2528 1972 1799 1799 2693 2736 2249 2158 2205 1860 2250 2350 2455 4137 4724 2862 2202 3234 2193 2193 1684 1991 2368 2703 3393 2265 2416 1925 1602 2798 -1264 -1986 -805 -2687 1462 3299 3299 2167 1179 1834 -87 1826 809 105 276 278 872 1010 715 811 138 195 195 990 108 -66 237 -3 580 579 -233 1281 -2482 -2484 -2977 563 550 494 494 607 741 782 1235 1313 1387 1366 -1572 -3148 -2146 -1864 1343 222 -773 -921 -921 -1476 -1697 -1699 -1256 -460 396 345 -255 -567 -2941 460 -139 -517 819 259 -2313 -2313 -1969 -623 -693 -879 -577 -818 -201 -373 -634 -872 -861 -975 -1129 -922 -1449 -1449 -1643 -1269 -1277 -921 -923 13 -1856 -749 503 1607 -404 -1410 -1744 -1430 -1339 -1339 -1944 -1695 -1337 -1713 -1563 -1075 -831 -413 -687 -814 -802 -1054 -706 -1189 -1345 -1195 -1195 -1373 -774 -101 -401 1234 2048 2336 2166 2405 1298 1129 1475 978 759 73 73 360 249 1019 1965 949 779 914 365 869 1689 1709 -93 -296 618 2490 2490 2132 1322 98 284 749 2115 3188 2410 2367 2531 2678 2668 4298 3609 2951 3057 3057 2719 2999 6085 963 -385 708 -290 1475 5866 3821 362 87 550 1834 4186 4186 4094 3627 2753 2690 2669 1993 3209 1347 -233 1043 2410 376 824 659 3633 3633 3294 2851 2074 1851 2224 1974 2631 4974 2251 626 2050 2328 1815 2337 1176 1176 1021 1161 1288 2991 -135 -575 34 1 1934 1491
1373 1051 1761 1833 2079 2967 2967 2718 980 405 453 -375 -568 -50 191 552 883 1666 2356 370 -494 -615 -615 -274 2642 3805 3765 3450 3966 4616 4679 4512 3800 2969 2425 2123 2468 1966 2972 2972 2767 1548 1193 1591 1791 1720 -2526 -677 -1333 -1114 -730 449 638 1082 1409 1409 565 -2088 -2444 -1718 -1600 -2052 -2010 -1939 -2944 -2954 -2898 -2713 -2890 -2872 -2914 -2914 -2748 -3117 -3079 -2963 -2777 -2683 -2523 -2567 -2616 -1941 -1896 -1228 -1689 -2255 -2316 -2316 -1903 -1733 -1272 -557 -1415 -1701 -2000 -1721 -1236 -1201 -1262 -1789 -613 -244 -220 -23 -23 113 3 62 179 360 72 281 -258 -523 -1277 -1147 -891 -378 -418 -588 -588 -1098 180 -176 -952 -1971 -2311 -2114 -2147 -2256 -2166 -1772 -971 -811 -301 1168 1168 750 3536 3258 1126 3006 2269 2781 2490 2149 1605 1227 1314 1141 1577 1616 693 693 196 -31 -556 -892 -724 -973 -1261 -859 -1000 -1519 -1951 -1747 -1145 -1499 -1104 -1104 -1540 -867 121 1469 928 -363 190 331 146 23 466 1139 1051 2309 2733 2733 2778 3162 2301 4129 4645 3303 3150 2143 1706 2051 2146 1664 1746 2326 3109 2954 2954 3284 3238 4411 4631 4612 4259 4152 3873 3568 4002 3249 3658 3296 2118 2271 2271 2026 3764 4157 3856 3876 3523 4079 4216 5342 3643 4372 3474 4078 4475 2822 2822 2689 3062 3434 4146 5221 5884 6878 6486 5966 3524 4353 5790 5911 6505 4763 4763 3761 2554 3946 4160 3467 3832 4316 4565 2556 1244 1038 1087 1969 1266 2033 3984 3984 5299 3493 3749 3718 3059 2074 1875 1107 1425 1162 1280 1393 1353 1377 603 603 277 -150 318 -482 -77 -240 -169 -482 -783 -589 -749 -938 -18 -727 -1167 -1167 -1430 -1253 -1090 -576 -342 -61 -90 -1062 -831 -130 1033 1624 2348 3607 5051 2216 2216 1488 1296 1223 1036 1996 4589 3523 5524 4905 4406 4123 3183 2438 2653 2270 2270 3182 3305 2679 2548 2324 2194 2524 2767 3807 4015 1593 1176 1710 717 -285 -285 91 363 692 2840 3457 3031 2548 1678 2222 2415 1642 -1680 -1489 435 4075 2988 2988 2616 1340 2081 -931 507 159 282 54 43 466 247 54 -227 545 704 704 -1469 1001 230 391 835 566 432 180 1081 1465 -703 637 1964 911 506 506 1064 670 777 1263 1340 1920 843 -1131 -3093 -3310 -2721 820 -703 -1030 -1186 -1186 -1265 -1258 -1457 -782 -986 -926 249 -130 -158 -3973 -171 -344 -310 -222 -1301 -1020 -1020 -519 -1209 -958 -477 -371 -739 -165 -94 -480 -739 -452 -794 105 -301 -1184 -1184 -997 -808 -386 -1299 -984 -73 -647 -150 -129 -1367 -6 -919 -1042 -727 -968 -968 -924 -725 -402 -792 -784 -426 -81 168 -339 -72 -468 -794 -668 -243 -935 49 49 -101 -561 641 1118 1452 2948 3041 3102 2450 1500 797 1073 2129 498 -18 -18 327 982 2078 1994 1013 335 20 234 593 1510 894 -326 -566 -230 122 122 3067 963 171 284 543 2045 3745 3097 2476 487 2526 2747 2899 4842 5650 3238 3238 5714 5693 5453 2331 -596 -297 -377 1347 4952 83 -200 -270 435 1451 115 115 -600 -415 4032 2296 934 -1321 -1304 26 3030 2586 2772 3104 2830 3317 714 714 278 1737 1837 2514 1272 1179 313 3409 3292 1989 2426 -298 280 2174 974 974 632 945 2431 2640 -541 -953 -772 -167 456 863
411 390 572 838 742 1320 1320 591 1731 3171 3330 2329 848 63 203 542 622 1729 1014 -958 -947 -535 -535 -1388 -639 -538 2777 5311 5061 4457 3762 3674 3209 2979 2384 1585 2427 2433 2393 2393 2788 494 1224 2205 475 -516 -388 65 481 -89 -287 -441 -581 -646 -319 -319 877 -502 -2265 -2007 -1796 -1626 -1608 -1656 -1604 -1827 -2105 -2669 -2239 -1801 -2446 -2446 -1864 -2422 -2482 -2630 -2257 -1960 -1971 -2033 -2266 -1914 -2323 -2114 -1884 -1665 -1293 -1293 -1432 -577 -5000 -4221 -2678 -1077 -1910 -2458 -1818 -3641 -1309 -1411 -1087 -714 -941 -832 -832 -441 -136 -24 375 2461 1917 804 681 1124 546 -86 871 -1249 518 -74 -74 -142 451 161 -1373 -1905 -1496 -1344 -1470 -1411 -1116 -626 -561 -260 183 934 934 1204 1985 4594 4367 4295 3793 3558 2809 2526 2351 1745 278 914 -990 -2046 312 312 94 -468 -684 -1031 -721 -672 -975 -1371 -1521 -1012 -1523 -1659 -1619 -890 -838 -838 -992 -589 -1039 -292 -41 399 929 1263 1636 1813 2910 2523 645 1081 1558 1558 3378 3690 4536 4158 4645 3544 3035 2650 2016 1917 2146 3269 2601 2183 2108 1951 1951 2251 2948 3406 4061 3391 4865 4124 1618 1526 2922 3584 4633 2566 2288 1906 1906 2047 3982 5162 4683 4617 5360 5803 4521 3640 1984 2537 2369 2660 3193 3725 3725 2561 4358 3687 4477 5548 5230 3967 3596 4242 6961 6132 3073 3585 4025 4441 4441 4511 3747 3142 2991 2839 2643 2629 2607 2957 2763 1861 1858 2174 3384 3299 4148 4148 3392 2749 2176 1744 1599 1222 896 482 205 295 388 257 141 218 26 26 -77 -230 49 -78 -198 -432 -455 -407 -526 -783 -749 -1073 -1320 -1597 -1927 -1927 -1935 -1791 -1537 -440 -217 99 313 -291 -119 -704 -412 -52 739 1828 4031 2200 2200 513 352 562 767 2509 3308 3090 3122 2524 1792 2250 2464 3243 -624 -629 -629 2741 2785 2124 3238 3394 3824 3596 3894 4503 4995 1681 472 -858 -959 -951 -951 -592 290 68 270 3721 3664 3352 2439 1947 2129 2055 2622 2217 1972 3118 2837 2837 3460 2709 2009 1247 1156 963 765 1059 954 556 280 -239 179 31 34 34 -56 288 436 832 540 808 871 736 284 953 1651 2280 -566 702 1346 1346 1206 1183 630 423 728 1574 104 -2299 -1945 410 48 44 -54 -741 278 278 -1110 -1247 -1306 -1101 -1231 -1222 -948 -336 -1 550 -18 902 -825 -880 -4158 -1473 -1473 -1585 -1179 -783 -667 99 644 -819 -3036 -3654 -4745 -4470 -4294 -2579 -127 372 372 -185 -356 -69 -563 -584 -1100 39 1307 -296 -286 -215 79 375 426 -177 -177 -407 -274 -114 66 -60 -236 -298 -365 -462 -242 346 -211 -20 356 1088 304 304 -837 1098 871 281 377 2714 2649 2261 2001 1394 1782 2087 1345 1633 911 911 713 1257 1253 1239 925 498 1076 -45 1429 2430 754 -249 -519 -293 1041 1041 3376 3840 2510 3095 3683 1140 546 886 4156 4196 4101 3830 3335 4262 3522 1234 1234 3184 3126 1333 2432 2461 3520 4870 4965 4540 462 -414 -368 -495 373 2733 2733 3283 4312 4712 3384 2080 -1158 -1448 -1092 2328 1181 395 912 1393 1050 -135 -135 738 526 1073 2047 360 294 299 2094 1077 2847 2769 2769 745 2165 2934 2934 1624 2521 56 -706 2413 1482 275 1714 2248 1297
1595 832 2012 1217 1671 1249 1249 997 412 2323 2503 2616 3806 4388 2101 3798 2168 2310 956 -1809 -1508 -783 -783 -1005 -373 -270 3561 4635 4150 3924 3025 2879 3065 2063 2311 2366 1763 994 1257 1257 2585 2591 2159 1569 795 -547 -1009 -428 765 654 -70 -705 -637 -969 -823 -823 -464 -17 -1370 -655 -1880 -2356 -2242 -1752 -1109 -2102 -2276 -2131 -1917 -1948 -1644 -1644 -1217 -1676 -1956 -1980 -1296 -1640 -1872 -1671 -1917 -2492 -2402 -2164 -1970 -1747 -1580 -1580 -456 -4122 -5298 -5190 -5127 -1204 -1520 -1821 -883 -1345 -1141 -1965 -2231 -1068 -938 -1094 -1094 -649 -592 -512 166 1991 1968 1812 909 1356 1170 1885 -2117 -1650 817 -159 -159 81 987 1608 690 -119 -1068 -366 -694 -734 -576 -491 -418 -218 574 1135 1135 1747 2917 5906 4600 4572 5010 2989 2488 1705 1600 3229 2185 1198 1115 715 330 330 -263 -811 -894 -1002 -1235 -824 -772 -913 -846 -975 -1571 -1223 -799 -889 -328 -328 -136 441 -181 -364 -262 95 254 706 603 881 1262 2183 3503 3080 2106 2106 2139 1198 1794 4671 3490 2989 2368 2635 2225 2332 2919 3622 2772 2534 2646 2560 2560 2779 3170 -179 1255 4221 4766 2562 1858 1920 2527 3200 2845 2990 3349 2829 2829 3657 3438 3736 4172 4826 5894 4521 3814 2430 1447 1433 2584 3572 2612 2748 2748 3308 4343 4620 5037 6044 5914 6511 5767 6589 6248 5565 4674 3437 4429 4482 4482 3878 2981 3268 1643 2545 2693 1204 1492 1683 2809 3137 4257 5259 2770 1862 2258 2258 1719 1556 1652 1236 1133 827 550 288 42 189 378 452 86 85 233 233 32 321 -360 -359 -375 -438 -806 -677 -451 -540 -946 -1022 -1309 -1438 -1785 -1785 -2097 -2046 -1018 2 294 211 209 -319 -128 -465 -352 -415 635 1269 2729 3686 3686 1721 1182 908 3928 4115 3364 3260 3031 2229 2468 2656 3045 3199 842 296 296 3595 2795 3224 2123 2707 3735 3287 3952 4012 4951 3821 2388 -439 -939 276 276 623 312 75 604 3071 4070 4017 2653 2702 1527 241 1187 2303 1833 2437 912 912 653 2352 2200 1766 1347 608 1409 1170 1179 1272 480 726 705 895 64 64 315 700 299 1341 1070 1138 1530 1060 788 860 1270 1467 2101 1663 1143 1143 1034 653 1107 1510 1836 2258 2296 1071 777 268 74 246 662 -413 -1035 -1035 -1378 -1595 -1330 -1224 -1193 -1184 -633 -82 453 561 354 -1422 -2158 -1338 -1617 -1163 -1163 -932 -1090 -803 355 354 -758 -2760 -3310 -4532 -4948 -4967 -4686 -4166 -1133 345 345 478 -44 -29 -212 121 625 555 -124 -261 -827 -796 -79 838 396 341 341 199 350 466 130 -396 -222 -127 -162 -209 -119 380 142 -28 -119 546 1290 1290 1529 1153 1287 206 46 390 970 2274 2608 1625 1930 1505 1743 2060 1214 1214 1040 1528 1549 1100 1622 1000 1338 813 906 2169 2006 1373 1627 1541 3249 3249 2022 2890 3393 4240 2775 1162 163 -152 2653 4289 4117 3334 3619 4715 5025 4177 4177 3869 2483 988 1147 1729 2254 4358 2935 2675 1277 16 6 -74 216 658 658 2149 4122 3937 2278 1143 2200 800 1786 1627 565 236 1324 1303 97 -52 -52 563 873 1377 2007 599 1479 1739 697 550 2398 2635 3790 -1417 -143 1069 1069 228 2849 -270 760 2206 2055 2082 1327 1331 1109
-31 1851 2826 1458 985 1853 1853 2985 346 2715 2377 3527 3499 3109 2199 2398 2468 2572 1564 -580 -1297 -1494 -1494 -561 -84 1887 5134 3917 3354 3662 3245 2344 2282 2256 2290 2063 1894 2169 1616 1616 2335 1668 473 1029 1062 -3 136 1048 -424 -369 -839 -769 -1059 -1190 -387 -387 -71 -419 -473 -2171 -791 -2264 -2358 -2057 -2058 -2112 -2336 -1648 -1621 -1102 -1009 -1009 -1660 -1593 -1726 -1727 -1112 -538 -1602 -1765 -1719 -2151 -2290 -2308 -2053 -1882 -2039 -2039 -520 -2798 -5379 -5407 -5085 -37 -917 -1902 -906 -1213 -771 -511 -1023 -1437 -831 -395 -395 -2071 -560 -597 576 376 1333 952 921 974 1641 1166 1974 2040 1176 386 386 853 1380 1908 2268 1343 -315 395 -2486 90 49 -293 -483 -334 -231 1098 1098 417 4910 1569 4663 2323 1034 2964 2116 1661 2154 782 -521 1412 587 113 -347 -347 -634 -666 -1376 -1547 -993 -3447 -4485 95 -13 -939 -580 -350 -942 -157 -923 -923 -557 181 157 242 -113 -56 -540 460 575 793 1011 1495 2548 3470 5142 5142 1769 981 1659 1331 3141 3561 2540 2480 2949 2921 3709 2732 3022 2485 2676 3340 3340 3376 4225 771 1669 3909 3915 4477 2550 2577 3750 3140 3014 2378 2973 2350 2350 2187 2668 3331 3956 4834 6014 4851 2336 1772 1753 1843 1685 3716 2317 2890 2890 3830 3553 4162 4728 6145 5236 7182 5799 5050 5314 5386 6882 4799 6084 4063 4063 2759 2618 2419 2180 2700 1795 1740 1146 1001 1849 2981 4218 4739 2540 840 1346 1346 986 1028 1145 1161 960 587 502 448 37 137 280 4 -130 21 -2 -2 -436 -160 -131 -250 -288 -191 -372 -72 -317 -391 -1127 -1076 -1568 -1448 -1733 -1733 -2018 -1392 -3001 -4695 -3285 1087 -168 30 -193 -227 -575 -444 -39 1127 1838 3332 3332 4143 4429 4657 4770 3463 3907 3231 2648 1857 2606 2225 2186 3146 3489 3396 3396 3428 3313 3215 -239 -2 1977 3725 4301 4297 3882 2934 3854 1051 -817 621 621 505 953 241 1630 5300 4445 3844 3112 3246 -625 -404 -848 1935 2119 2432 3367 3367 2135 1539 1488 1389 1472 730 759 1233 1389 1378 1550 1232 1324 1604 1252 1252 764 612 1033 1710 1695 1847 1972 2375 1239 1141 1019 1160 698 531 917 917 1137 1704 1215 1809 84 -1689 1170 745 773 1403 -401 424 853 -131 -1165 -1165 -979 -368 -791 -565 -731 826 -294 -227 804 1617 -3674 -1266 -1300 -1879 -1561 -836 -836 -776 -898 -356 -98 -547 -3395 -2654 -3615 -4933 -4824 -4846 -4822 -4454 -164 454 454 1758 2140 1676 510 871 670 521 -186 -166 -605 -1075 365 533 662 516 516 -31 -313 -375 -110 -758 -835 -799 -673 -900 -755 -497 -17 -57 278 667 968 968 491 688 1155 351 530 86 99 805 3669 3541 2689 2493 2157 2114 1334 1334 1661 228 1390 711 880 1991 1256 383 1129 1735 1390 1427 1893 1751 2238 2238 2256 2558 2610 2794 3465 790 748 2168 4035 2928 1414 454 481 2803 4688 4585 4585 3049 3016 1763 1148 1325 3301 2724 1500 1586 2305 2532 2927 2202 3076 2430 2430 2866 1961 2166 1516 1300 1069 1060 330 -40 580 781 1416 915 229 264 264 -207 -134 565 -109 411 678 1323 709 2238 2462 664 2602 3324 3027 2579 2579 2302 3045 3096 2566 2508 2174 2661 1820 1277 781
1309 2480 1505 1055 1049 465 465 1354 1682 1159 2748 945 1561 1464 1532 1266 1814 3673 4644 3271 2455 -191 -191 3309 3076 3768 3718 2974 3168 3117 2452 2026 1820 2058 1651 1555 1718 2002 829 829 1501 822 274 344 303 682 290 46 -77 -302 -556 -585 -248 -86 188 188 456 811 -485 325 195 -2285 -2025 -1971 -1749 -1863 -1567 -1711 -1410 -1230 -1938 -1938 -1493 -1485 -1693 -1849 -1914 -1070 -165 -977 -498 -1171 -1731 -1896 -2126 -2120 -2105 -2105 -1832 -1585 -2451 -3885 -2470 -1424 -2211 -1925 -1657 -1134 -188 -2219 -4008 -1443 -2167 -581 -581 -666 -965 -1178 9 -68 123 3 623 1153 1381 703 1519 1214 948 1481 1481 1821 1658 2174 3709 3182 1158 916 470 391 -24 -361 -403 -458 -350 556 556 2185 3029 3420 2736 3389 2431 1756 1597 1404 1734 664 -1264 1057 588 657 342 342 -899 -1543 -1788 -2102 -1299 -3029 -4206 53 -3 -1104 -408 -527 -972 -858 -433 -433 13 400 610 1245 1110 1719 1786 1431 1796 1898 556 1202 1767 2845 4068 4068 2104 2717 2389 909 623 1637 2951 2700 3089 3475 3121 2669 2264 1873 1955 1998 1998 1771 2835 4157 3712 3946 5017 4993 4992 4290 3814 2560 2853 2139 2206 2449 2449 2157 2058 3263 3975 5378 1857 1583 1623 1498 1534 1757 2187 2338 2461 2599 2599 3583 3904 5377 5115 5364 5160 4890 3926 5373 4979 5126 4655 4940 4719 3944 3944 3131 2461 2441 1908 1332 1658 1281 237 684 975 1632 2177 2912 2676 405 2 2 189 556 642 849 926 607 396 333 314 -83 -106 1 -57 -329 -12 -12 -156 -146 -151 -115 -361 -398 -718 -545 -668 -744 -1220 -1231 -1333 -1645 -1699 -1699 -1859 -1900 -2013 -4434 -1287 -31 -333 -455 -389 -486 -805 -844 -330 457 1626 2334 2334 3104 3419 2446 4345 3539 3814 2114 2408 1938 3526 2593 2642 2752 2846 3045 3045 2867 3145 3434 744 664 3484 3397 3957 4022 5011 3230 3134 2649 1724 843 843 417 1021 3318 5469 4991 3934 3552 3757 3845 2876 -1082 -11 2680 2445 2141 1676 1676 1822 1108 1139 1289 1363 884 715 1165 1449 1861 1484 379 419 1265 1411 1411 663 452 911 1344 1519 2483 2355 2851 915 568 258 3 1113 -421 1532 1532 -842 1452 1314 1407 34 -1610 1823 1102 1074 934 -1209 102 2149 -1210 6 6 -838 -533 22 -547 147 199 340 -678 491 873 -353 -585 -1751 -1344 -1521 -1558 -1558 -1024 -275 384 -641 -1074 -2915 -2970 -3774 -3914 -4575 -4700 -4168 -2571 -1146 264 264 1078 1331 1398 1339 1814 1344 682 602 473 852 -708 287 475 346 -17 -17 -1012 -1078 -1253 -1213 -1674 -2081 -1760 -1769 -1644 -1479 -1101 -1022 -898 -724 -80 536 536 736 395 330 1378 980 127 606 639 2513 4547 3914 3387 2316 1798 1430 1430 1703 1550 886 639 494 2653 1642 1354 856 1101 1357 2093 -894 1720 1604 1604 1361 463 2848 2353 2401 2719 3038 3912 4260 1345 518 1674 1236 1613 4144 2892 2892 2553 2287 2383 2237 1784 1820 1097 985 1155 1642 2458 3419 2572 1357 1334 1334 1042 1012 217 2225 1000 947 831 354 364 763 1337 1027 281 15 413 413 -2 194 545 -34 647 36 587 858 1377 1334 1455 1896 2832 2344 2385 2385 2252 2681 2438 1920 2060 2965 2545 1836 1731 263
2077 2351 1749 1610 31 52 52 1113 1517 2279 982 1413 1101 915 950 1133 1720 3367 4075 4003 4011 4870 4870 5402 4070 3234 2959 2642 2570 2462 2534 2452 1760 2028 1303 1579 1556 416 -222 -222 -358 1165 529 608 652 558 234 -219 -240 -296 -151 -596 -85 673 1430 1430 697 -479 -993 -801 -392 -150 495 87 101 -661 -838 -236 -849 -239 -1917 -1917 -1976 -1631 -2748 -1935 -1727 -1505 -371 -444 -515 -646 -607 -1750 -2066 -2124 -2120 -2120 -2418 -2409 -1341 -1406 -1948 -2004 -2288 -2137 -1968 64 684 69 -1363 -814 -1523 -2258 -2258 -1844 -1016 -816 -608 -603 -589 -542 -428 124 111 670 1382 934 1196 1337 1337 1388 2222 3369 3594 3889 3885 4258 1157 800 918 1054 371 466 1116 2406 2406 2742 3297 1896 1417 1238 1262 1339 1696 1554 847 708 1167 256 132 -532 -350 -350 -1443 -1743 -2023 -1758 -1860 -1046 -252 -609 -838 -498 -364 -1263 -1357 -989 -195 -195 248 526 562 869 1446 1296 1424 1164 -448 983 1039 1562 2446 3478 2878 2878 3720 3141 2859 3690 2362 3904 4433 4095 2290 2890 2607 2483 2163 2048 2164 1968 1968 2070 2261 2937 2935 3594 3934 2264 2218 2357 3761 2922 2829 2250 2006 1623 1623 2013 2253 2610 3691 1936 1664 1443 1421 1389 1277 1356 1685 2486 2644 3225 3225 4717 3953 4824 5347 5712 5600 4604 4483 4405 5071 4916 4367 4403 4077 3619 3619 3066 1559 2066 1955 1935 776 1046 63 -43 631 1631 1991 1650 793 -627 -351 -351 -78 77 364 255 466 451 465 350 365 67 -275 -125 -54 132 -25 -25 74 -72 35 -105 -394 -343 -603 -888 -798 -707 -1187 -1098 -1542 -1591 -1732 -1732 -1815 -1945 -1757 -1354 -862 -341 -369 -517 -626 -94 -187 272 335 686 1189 2064 2064 2956 1256 50 4532 3588 3323 3012 2732 2149 3263 1396 2568 1338 2223 2675 2675 2457 3351 3547 3553 3788 3410 3024 3231 3705 4072 2962 2697 2983 4098 4820 4820 4693 5267 5126 5586 4754 4036 2929 2244 3102 2850 2785 2631 2359 2100 2058 1833 1833 1622 1392 1723 1099 1234 1024 669 1166 1686 1293 633 518 646 1083 1716 1716 1337 1121 1223 1086 1908 -165 -85 1727 866 366 414 241 359 886 2128 2128 682 2921 1462 1393 1840 2290 1763 1402 1235 1349 1830 2021 1364 -2126 -1065 -1065 -914 -1111 403 496 -66 -210 706 581 1175 -435 167 -1725 -2105 -1980 -1458 -1419 -1419 -1277 -1139 -631 -324 -2309 -3131 -3281 -3883 -3752 -3647 -3780 -3314 -2810 -1441 -386 -386 1239 1019 1767 1705 2705 998 727 1041 637 -320 265 883 591 307 -90 -90 -2290 -2524 -2129 -2517 -2743 -2996 -2911 -2734 -2517 -2501 -2312 -2056 -2054 -1854 -1484 53 53 524 284 507 187 196 13 96 761 612 2235 3471 2666 2189 2115 1148 1148 1215 1420 1034 819 1148 2029 1428 683 752 680 1625 2080 -1349 1821 1584 1584 1349 1179 2228 2405 2333 1984 2965 2893 4222 3079 -2055 -1134 1584 52 2977 1844 1844 1252 804 1522 1588 1807 590 540 871 1027 252 -770 -410 1493 666 467 467 713 934 831 2304 1613 1015 1094 1164 1428 2255 2827 1010 293 290 199 199 364 660 480 689 -93 -22 182 1061 809 745 1585 1930 2140 1894 1043 1043 1246 2242 2431 2769 2497 2489 1841 2407 1358 -515
2466 2236 2324 1444 155 -86 -86 302 671 1163 676 624 1161 803 866 1360 1879 2750 2619 3591 2965 3597 3597 3290 3064 3156 2645 2376 2341 2614 2645 2107 1488 1659 1374 1342 1971 284 -509 -509 -286 1076 735 511 987 906 669 185 -93 -950 -247 42 1039 -2779 -2057 -2057 -2167 -273 -1200 -1119 -1354 -975 103 294 -466 -543 -108 -575 -335 104 -814 -814 -1377 -1525 -1502 -1752 -1639 -1252 -1384 -1099 -1274 -1217 -1413 -595 -1307 -1944 -2436 -2436 -2768 -2277 -2029 -2402 -2162 -2272 -1914 -781 -604 -1451 267 -358 -705 -1108 -1799 -462 -462 -2007 -1866 -635 -1137 -1264 -876 -1075 -647 -496 -563 -390 952 752 454 555 555 911 568 1874 1696 2428 2746 2437 2357 3228 2179 1847 1412 2267 3706 4235 4235 3130 2629 3242 1299 417 472 1763 774 1372 1586 1815 1369 907 335 436 -151 -151 -1073 -1593 -1638 -1856 -1579 -477 -1673 -1252 -1025 -721 4 -1103 -1032 108 358 358 206 415 170 640 712 301 302 1411 -212 758 1180 1875 2245 -707 2175 2175 4879 4409 555 40 2050 467 1828 3548 2194 2020 1908 2372 2491 2362 2181 3566 3566 3631 3404 2066 1975 3317 1647 2198 2378 2669 4970 3968 3076 2186 2157 1883 1883 1761 2220 2692 2513 1872 1434 1318 1516 1409 1266 1281 1356 1767 2636 5402 5402 5143 5029 3847 3021 4237 5504 4762 4489 4578 4297 4098 3886 4034 3204 2883 2883 3026 3096 2849 2575 927 256 1537 -66 399 913 689 1513 1501 978 -432 -316 -316 -200 -140 133 334 533 393 646 518 37 -132 -86 -74 1 -80 -166 -166 -194 -117 -276 -477 -136 -440 -541 -740 -985 -1112 -878 -1124 -1203 -1295 -1372 -1372 -1715 -1744 -1866 -1947 -1284 -725 -154 -469 -261 -248 -214 -584 -236 694 1097 2589 2589 1583 4383 3629 3510 3302 3298 3666 2933 2752 3276 3109 2541 2691 2758 2985 2985 3725 3736 3025 3623 2920 2679 2834 3517 3587 3766 2448 1942 2226 3655 5542 5542 5132 4973 4944 4461 4036 3830 3178 2502 3171 3163 3231 2735 2771 2227 1770 1491 1491 1423 1865 1771 1823 1201 1379 1203 1363 1143 1126 607 842 782 1136 1119 1119 816 784 618 935 1082 396 363 2206 1163 779 195 218 722 1338 1374 1374 692 -1184 89 2481 1948 2076 2248 2039 1708 1683 1449 2462 3449 697 208 208 -553 -1048 532 611 359 -747 -649 579 1144 -289 -1073 -1026 -2112 -1819 -1748 -1738 -1738 -1349 -1341 -1025 -887 -1610 -3172 -3377 -3626 -3626 -3435 -3398 -3419 -2765 -749 557 557 1185 1573 1643 3041 1397 995 1045 1199 1020 185 1440 1109 736 -320 -2440 -2440 -2831 -3016 -3319 -3315 -3552 -3467 -3308 -3158 -3237 -3350 -3093 -2958 -2793 -1892 -1763 -1569 -1569 -836 486 931 226 39 -69 -65 65 -404 365 3150 2093 1661 2102 1918 1918 1146 994 1294 949 1690 1655 986 1120 431 650 1178 1193 1321 1472 1676 1676 1744 1550 1762 2486 2595 2061 1047 1843 1894 3021 2441 1526 691 1877 3371 1178 1178 804 758 816 687 1191 1861 2027 2135 1540 1572 -459 -524 499 1126 729 729 240 834 697 2663 767 2302 2371 1329 1542 308 305 710 582 135 694 694 230 19 678 -478 -413 -124 127 -51 454 564 1380 454 1759 1388 1359 1359 1725 1571 950 719 865 1071 1259 3012 737 490
1771 2496 1900 1163 802 1023 1023 -465 1236 1269 1019 814 1162 921 879 1314 2069 2031 2058 2138 2445 2436 2436 2727 2118 2303 2159 1923 2118 2052 2154 1760 1596 1286 1489 1043 1574 1607 871 871 1248 1124 704 509 1055 1617 968 544 589 -335 -485 586 1182 -1451 -2320 -2320 -2021 -211 -721 -1086 -1278 -858 -660 -194 -745 -831 5 -2067 -457 -1209 -754 -754 -720 -854 -857 -1071 -1171 -529 -925 -1292 -1373 -1546 -1608 -1450 -459 -1495 -1699 -1699 -1504 -2328 -2080 -2303 -2441 -2779 -2549 -1023 -4160 -521 -711 -1784 -273 -1548 -1472 -1684 -1684 -1682 -2087 -1023 -963 -1400 -1146 -1214 -1568 -1138 -822 -1125 94 156 -3 -234 -234 -244 47 545 545 1920 2231 3101 2840 2287 2601 2824 2559 2213 2634 3070 3070 2205 1553 1122 579 247 198 911 153 934 1540 494 -810 -3189 -3316 -1818 680 680 -263 -1136 -1424 -1858 -1453 -751 -586 -694 -1058 -970 -632 -195 -95 950 982 982 327 -88 679 303 46 -134 -7 41 437 846 785 2161 2906 871 815 815 717 2943 3013 746 -155 -70 -152 2485 4629 1439 1366 1733 1884 2447 2310 2635 2635 2580 2428 2317 2116 3574 3960 1599 2171 2655 5041 4948 3508 2598 1832 1886 1886 2004 1848 2550 3085 1712 1475 1388 1413 1196 1302 1411 1466 2114 5082 5089 5089 4420 5561 2685 3276 3728 4916 4192 3957 2758 3695 3780 3753 3467 3066 3111 3111 2655 2289 1806 2069 1330 1632 781 292 618 -44 184 242 1507 1252 805 14 14 -370 -218 -133 203 124 -160 551 765 217 -110 -300 -338 -217 -389 -390 -390 -193 -14 -129 -284 -192 -702 -1072 -946 -1070 -1229 -1394 -1181 -1404 -1418 -1407 -1407 -1969 -2041 -2224 -1965 -1770 -360 -400 -567 -220 -311 -301 -730 -759 -42 1473 2381 2381 2336 3203 3048 3758 3462 3574 3616 3717 3736 2717 2768 2714 2640 2960 3538 3538 1711 1608 2479 3764 2695 3075 3276 3486 3564 3031 1972 1828 2282 3806 4058 4058 4611 3955 3956 4215 3512 3230 3289 1792 2618 2405 2390 3436 2197 2474 2031 1822 1822 1402 2181 1445 2126 985 902 1025 1480 1677 -1513 355 349 919 752 685 685 1034 557 606 966 1239 1612 2165 1977 1310 845 272 754 382 1376 -1548 -1548 -2528 -2474 -1768 56 1745 2126 2816 3139 2990 1963 3504 1848 3117 1266 253 253 493 -911 -333 539 275 -375 -604 670 -61 -445 -704 -469 -1388 -2187 -2000 -1930 -1930 -1860 -1597 -1645 -1150 -924 -2567 -3410 -3570 -3398 -3023 -3083 -2569 -591 1325 1750 1750 2162 2848 2831 3297 1989 1271 1316 1526 1229 608 1059 1216 830 -864 -2174 -2174 -3001 -3410 -3684 -3808 -3762 -3865 -3865 -3676 -3736 -3843 -3775 -3323 -2830 -2736 -2344 -1482 -1482 -1393 -1607 -189 -117 -424 44 -486 -603 -351 -557 726 2636 2478 2156 2585 2585 2609 2464 2642 2808 1802 2095 855 3062 955 1164 1240 1081 1148 1284 1100 1100 1396 1240 1703 1693 1606 1982 1572 1676 1590 3041 2914 2458 1015 243 1999 1172 1172 778 567 1260 -614 1167 607 496 1380 1757 1818 2217 381 439 696 805 805 196 269 636 -743 -1182 -228 2175 1639 973 1455 981 242 210 -462 584 584 776 713 -343 -318 -62 -224 -271 -177 195 652 1026 652 1952 2521 2487 2487 2008 1531 969 779 1037 658 672 2201 1352 628
-11 787 482 1095 478 549 549 830 385 245 1289 989 267 240 386 1154 1449 783 1575 1197 1669 2215 2215 2715 1785 1591 2105 1948 2093 1991 1836 1771 2032 1312 1127 1243 1270 1369 609 609 427 831 862 741 1142 1698 1626 693 346 358 472 1286 47 1058 161 161 -71 -1268 -1411 -1434 -1371 -736 -458 -822 -775 -844 -390 42 -629 -1432 -445 -445 -109 -520 -739 -934 -571 -707 -1096 -1297 -1711 -1774 -1807 -1876 -1314 -1316 -2169 -2169 -2199 -2537 -2080 -2178 -2170 -2676 -2758 -2327 -4245 -3502 -1822 -2719 -2286 -2108 -2470 -2377 -2377 -558 -1146 -1916 -639 -794 -1651 -1623 -1707 -1394 -1342 -1485 -1040 -282 -527 -991 -991 -423 -341 105 353 609 972 2460 2124 1412 1067 1603 1426 1776 2530 1770 1770 1190 928 379 -88 -434 730 639 -699 62 723 -2761 -3572 -3506 -3465 -3222 -573 -573 371 -415 -867 -1093 -1065 -1034 -906 -1219 -980 -543 -528 19 -80 124 834 834 46 -245 -355 -133 -520 -587 -634 -497 68 596 802 1639 1702 -327 -776 -776 -389 3954 2370 -449 -727 -635 -407 868 2761 3380 2729 1664 2051 2671 1959 2845 2845 3903 4336 4079 4938 5184 3774 1702 1849 2165 3025 4573 5197 4842 4403 2183 2183 1744 1886 2508 2938 1774 1864 1205 1369 1225 1258 1554 1794 3786 4067 3542 3542 4448 4899 4345 3197 4398 5354 3827 3920 4443 4007 3990 3955 3202 2838 3018 3018 2942 3408 2726 2733 2168 1533 1029 -301 -968 -886 -340 -206 1055 317 1065 604 604 2018 1296 76 -269 -163 44 -103 14 -112 -201 -420 -530 -549 -443 -236 -236 204 -222 -308 -147 -757 -829 -957 -1123 -1197 -1338 -1342 -1140 -1479 -1349 -1333 -1333 -1886 -2003 -2094 -1735 -1220 -620 -500 -559 -634 -135 -212 -653 -724 264 1052 1918 1918 2616 3083 3582 3678 3725 4213 3759 3705 3743 2779 2714 2992 3172 2890 4103 4103 2414 1489 2289 3664 3425 3208 3122 3311 3572 2929 2291 2248 2975 3958 3840 3840 3770 3394 3229 4283 2432 3646 3276 2868 3088 4043 2376 1916 2476 2407 2664 2347 2347 2626 2909 2656 1531 1187 735 383 555 1002 870 126 -175 278 1452 916 916 610 375 630 327 639 1461 1790 1325 1097 893 492 789 478 1334 -912 -912 -2338 -2274 -1730 1190 2618 4111 1258 478 3273 3805 2472 2642 2126 1703 415 415 33 -418 -81 40 553 783 183 -781 -974 -975 -818 -781 -2011 -2230 -2185 -1896 -1896 -1624 -1775 -1375 -1307 -711 -915 -2845 -3082 -2990 -2109 -1686 -751 -263 2047 2265 2265 3471 4134 4774 1876 1721 2003 1954 2278 2163 1701 989 210 -3355 -3897 -1726 -1726 -2913 -3703 -4126 -4107 -4103 -4103 -4222 -4263 -4119 -4182 -3841 -3500 -3197 -3199 -2796 -2352 -2352 -2140 -1387 -1185 -875 -871 -611 -465 -829 -105 -396 -515 1190 2493 2812 3398 3398 2353 1174 1606 1773 1672 585 1398 2123 812 2019 2464 1875 1415 1504 513 513 1489 1547 1720 1256 2395 93 -654 512 2188 2090 1999 2213 1274 268 1486 1842 1842 1303 968 1023 -1449 -516 56 331 302 1219 1480 2311 2436 608 933 985 985 573 159 72 1250 336 1592 673 416 1367 -1085 1178 -110 162 150 315 315 524 614 593 -230 333 -90 308 434 173 518 950 1611 1715 1310 2741 2741 1959 1545 1275 1112 1127 800 1270 2227 1460 591
-244 104 -622 -300 1016 -3 -3 -404 -590 -220 495 323 92 679 760 1078 710 660 951 378 1408 1267 1267 1493 1656 1642 1588 1656 1931 2140 1932 1584 1831 1510 1084 842 1048 827 847 847 577 749 1013 1230 1264 1938 1284 677 360 630 606 819 199 -162 -1245 -1245 -715 -1015 -1752 -1830 -1632 -581 190 -971 -957 -1211 -988 -561 -1413 -1215 -1314 -1314 -345 -646 -335 -475 -740 -1031 -943 -1368 -1632 -2073 -1917 -1680 -1177 -883 -2301 -2301 -2435 -1867 -2239 -2378 -2313 -2660 -2889 -2601 -1902 -2807 -3051 -2683 -2801 -2854 -2494 -2218 -2218 -1972 -297 -973 -1557 -2226 -1316 -1448 -1675 -1334 -1354 -1325 -756 -872 -134 -431 -431 -796 -734 -423 -264 -218 312 77 108 309 531 347 700 617 1557 1019 1019 1043 238 38 -654 -530 213 222 -887 273 173 -3051 -3326 -3301 -3553 -3437 -2441 -2441 743 309 -385 89 -779 -670 -712 -611 -638 -310 -131 13 391 580 487 487 16 -429 -622 -700 -667 -689 -1282 -432 -422 -72 216 951 2043 2218 725 725 1667 3381 3386 -81 -586 -726 -196 1982 2175 2731 2185 2156 2203 2260 1867 4000 4000 3571 3506 3882 3991 5241 4704 2964 1715 2666 4571 4016 4055 3928 4105 3764 3764 3063 2476 2636 2599 2613 1863 1549 1446 1449 1445 1816 2567 3559 3652 3781 3781 3048 2945 5043 5393 6420 5047 4033 3359 3618 3157 2934 2669 2584 2004 2554 2554 2868 2732 2745 2539 2127 2039 1274 -246 -740 -1250 -1408 -1426 -1011 -459 495 397 397 1649 1277 677 90 446 -58 -88 -284 -25 -328 -359 -306 -368 -439 -542 -542 -29 -380 -984 -960 -945 -699 -989 -1138 -1341 -1413 -1187 -1047 -1093 -1385 -1523 -1523 -1743 -1832 -1967 -1769 -1145 -810 -704 -412 -252 -104 27 -756 -305 329 1085 1999 1999 2976 3380 4154 4804 4762 4064 3621 3953 3698 2927 3165 3831 2403 3674 3692 3692 4345 3851 4424 3494 3378 3197 3235 3278 3522 3041 2483 2205 3044 4205 3771 3771 3541 3390 3517 4422 3285 3267 3143 3357 4461 2850 2319 3988 3542 2817 1724 4470 4470 1157 -452 170 2144 2218 1366 363 127 637 776 186 -596 2030 -608 1198 1198 634 489 597 556 522 1546 2105 1157 696 769 508 1177 916 1724 2354 2354 -1034 -1567 467 2435 3414 4471 445 846 463 2118 3093 2683 3973 2915 2090 2090 1730 2259 1653 916 693 -7 194 -624 -1180 -699 -659 -1464 -2202 -2253 -2314 -1776 -1776 -1896 -1870 -1530 -617 -1010 35 -2329 -1292 -931 -238 1063 2328 2414 3196 3454 3454 4282 5238 5264 1508 2152 2906 2469 1340 1513 1929 1404 -2015 -5386 -3898 -800 -800 -3308 -3768 -4093 -4416 -4318 -4273 -4269 -4343 -4197 -4120 -4197 -4003 -3385 -3382 -2810 -2515 -2515 -2095 -1997 -1428 -994 -774 -741 -859 -1091 -962 -386 -487 -593 1763 2276 2409 2409 1903 948 562 1194 800 840 1511 -160 -475 932 -989 -1266 2658 1456 910 910 1636 1259 868 1630 3328 810 861 1480 1883 1384 846 1374 965 333 76 1636 1636 453 -285 984 1367 279 749 -59 485 -268 -2266 350 826 450 897 1022 1022 429 956 878 884 1760 1378 1744 1663 1727 2519 904 673 53 270 979 979 742 535 -2800 -902 708 1046 1505 -2186 508 955 1812 1312 1350 2021 2317 2317 840 1021 901 705 808 969 1095 1859 3559 2170
-1036 -562 -887 -595 324 234 234 -63 -989 -864 309 1219 1379 -131 1018 1291 778 820 1149 411 973 555 555 698 627 1271 1015 1489 486 1152 1849 1756 1128 1822 794 809 747 862 821 821 881 1482 1722 1670 1741 2461 1233 1192 694 605 593 725 428 -1126 -837 -837 -1161 -1235 -1730 -1254 -728 -267 -401 -795 -497 -1058 -1372 -635 -915 -1047 -507 -507 -735 -630 -749 -518 -914 -1010 -1080 -1623 -1681 -1971 -2048 -1912 -1778 -1020 -1873 -1873 -2265 -2383 -2194 -2629 -3149 -2234 -2867 -2962 -2450 -2710 -3092 -3111 -2938 -2823 -2418 -1357 -1357 -1845 -1402 -1274 -495 -265 -1458 -1077 -822 -782 -600 -822 -1268 -1231 -1114 -1352 -1352 -584 -503 -79 -144 367 34 -42 -527 -875 171 -273 -113 -179 788 37 37 416 -46 -531 -281 -545 417 634 -760 -83 1192 -1640 -3316 -3538 -3407 -3298 -2034 -2034 631 261 361 654 142 984 495 -112 -576 94 441 107 -480 -277 -650 -650 -572 -776 -1040 -1251 -1153 -904 -638 -152 101 -219 -19 1011 1188 1367 2145 2145 2131 919 -487 1244 1835 1576 1522 1670 1803 1435 1350 462 748 2063 2357 4342 4342 2899 3234 3201 3320 4044 4940 4889 4969 3861 3567 3485 3329 3437 3249 3548 3548 3153 2728 2605 1977 2188 2548 2785 2170 1743 2483 2447 3407 3556 3416 3054 3054 4035 4132 5115 5511 4711 4259 3726 3532 3451 2835 2750 2611 2422 2529 1917 1917 3252 2711 2075 2130 1462 12 -864 -288 373 -825 -1578 -1937 -2069 -2061 -2119 -1229 -1229 274 -457 -172 2247 2318 2184 2050 1419 1668 753 1144 1106 983 503 -181 -181 118 -139 -971 -1173 -1401 -1071 -1114 -849 -1005 -1298 -1323 -1385 -1088 -1424 -1400 -1400 -1431 -1587 -1879 -1641 -1253 -801 -623 -82 89 223 691 551 146 834 1589 2561 2561 3134 4490 4577 4664 5101 4643 3905 4359 3981 3757 3958 4717 3535 3735 3553 3553 3635 3645 4150 3729 3742 3641 3301 3405 3521 3127 2375 2615 3624 4274 3921 3921 3427 3566 3298 3358 3057 3003 3831 3862 1513 193 54 874 3045 4493 3513 1588 1588 -1098 -1297 -1018 -1072 2615 1741 964 625 1323 1183 2158 -1025 -2416 -452 854 854 44 468 479 567 1405 1732 -16 1136 1030 1170 1271 1435 862 558 725 725 1071 1237 1289 1528 2757 3199 3667 2481 3944 3919 1649 2441 1862 2477 3208 3208 2883 2676 2401 1685 2383 -1541 1222 531 387 -164 -1778 -1543 -2247 -2233 -2182 -1920 -1920 -1593 -1308 -1501 -1310 -646 -71 788 941 935 1877 2589 3486 3200 3382 3637 3637 3991 4948 3993 2536 1543 1536 2438 2212 2130 2245 -259 -1201 -822 -881 -1919 -1919 -3371 -4023 -4278 -4452 -4518 -4343 -4103 -4203 -4165 -3804 -3978 -4041 -3886 -3687 -3387 -2870 -2870 -2810 -1842 -1568 -1705 -1129 -907 -1111 -873 -742 -1160 -1144 -518 -110 2080 2778 2778 1324 909 759 770 1508 1574 1074 -589 -300 1174 -875 -1317 2932 2376 1683 1683 1458 806 1339 2792 2260 1554 2310 2006 1196 1053 400 453 789 556 506 1589 1589 11 -987 -434 31 516 324 994 910 -3489 -4237 -3999 722 2755 1947 1116 1116 1203 1385 1213 2091 2137 1880 916 1604 1804 2565 -515 190 89 303 105 105 448 220 -2695 718 827 1258 1426 807 1589 1590 1686 2086 2011 2216 3524 3524 1542 206 386 552 1113 680 976 2583 3900 3810
-767 -475 -155 -415 312 326 326 -271 -361 -133 1016 -281 805 1019 1015 1087 1050 950 855 481 1084 613 613 518 676 787 1504 -344 -385 172 642 258 1543 444 447 1157 917 547 711 711 -104 563 1480 1502 1327 2460 1222 2000 2385 875 -516 544 -183 -984 -1097 -1097 -1362 -1335 -1003 -880 -224 -354 -698 -584 431 182 -274 -357 -537 -657 -943 -943 -1035 -404 -535 -923 -1152 -1171 -1012 -1264 -1524 -1781 -1913 -1981 -1512 -1521 -1328 -1328 -2014 -2124 -2038 -1767 -2030 -2407 -2813 -2699 -2885 -3088 -3150 -3058 -3066 -3403 -2645 -2542 -2542 -2154 -1349 -1885 -1354 -783 -748 -535 71 -3346 -3485 -1387 -407 -1419 -1505 -1390 -1390 -1339 -1027 -1303 -1181 -1460 -1092 -905 -210 -353 -469 -145 -69 -225 -108 -3767 -3767 -1747 -374 -668 -4071 -961 -448 195 859 811 1192 1301 -532 -2826 -2369 -569 793 793 1089 214 508 1304 -1362 -2088 -2766 294 636 154 -721 -1129 -905 -1409 -1473 -1473 -1730 -1886 -1311 -1523 -1651 -993 -958 -752 -364 121 322 828 801 1176 1760 1760 774 861 -518 1656 1415 1167 1010 842 1363 1601 1726 526 1077 753 1036 2163 2163 2941 2430 2815 2857 3298 4553 5576 4568 3867 3143 3473 3003 3063 3021 3110 3110 3630 3826 4023 2463 2272 2659 2905 3319 2966 2695 2692 3800 3436 2186 2747 2747 3017 3832 4148 3705 4061 3785 2503 3541 3127 3036 2612 2236 1830 2223 3144 3144 2835 1501 1890 1237 1226 651 -1597 -903 36 -378 -1186 -1961 -1906 -2063 -1729 -464 -464 -352 -459 776 1646 2461 2136 2106 2769 2711 2516 2008 972 578 -46 -114 -114 -489 -562 -991 -1205 -1153 -1652 -1614 -1535 -1116 -1136 -1403 -1505 -1224 -1352 -1445 -1445 -1480 -1632 -1446 -986 -864 -693 -402 409 397 1167 1499 1132 1061 1220 1432 2591 2591 3454 4058 4601 4394 3956 4963 4532 3798 4723 4320 4218 4011 4134 4500 3834 3834 4021 4699 3603 3714 4262 4213 4088 3833 3640 3010 2861 3280 4203 5689 5074 5074 4079 3871 3831 3583 2985 3944 2000 2576 577 -190 -73 206 4014 4601 4263 -955 -955 -2334 -2183 -2289 -1793 2145 2150 563 28 119 601 1792 -2217 -2958 -2777 350 350 -822 589 1158 1659 1720 393 820 1415 1617 1339 1264 981 571 -422 -143 -143 212 248 540 925 810 1384 4168 4215 5486 3629 1812 2109 2502 3395 5413 5413 4110 3809 2080 2679 2978 2413 1975 2253 2446 1810 -489 -1377 -2463 -2272 -2020 -1355 -1355 -1065 -992 -1436 -669 -243 235 371 944 1006 1859 2443 2668 2958 3609 3845 3845 4790 5184 6474 5803 1225 2080 2495 2247 2259 -520 -1749 -2251 -2101 -2555 -3240 -3240 -3504 -4149 -4309 -4469 -4381 -4125 -4104 -3949 -3873 -4047 -3881 -4082 -4147 -3907 -3441 -3387 -3387 -2828 -2216 -2223 -2087 -1245 -960 -1096 -1543 -1209 -110 -578 -384 1053 1559 1734 1734 1084 1362 1274 1230 934 864 1409 781 413 1742 2199 3287 2428 1506 797 797 1000 2508 2961 723 1393 1811 475 1505 1934 1613 1031 794 396 -1671 306 787 787 1624 168 298 -1 42 -420 -42 664 -4691 -4416 -2493 -915 544 -3363 -3031 -3031 -2994 85 1398 338 874 1046 1150 1387 1746 -231 -879 -488 -376 45 326 326 384 447 672 439 645 826 377 116 368 1423 407 204 2484 3609 3393 3393 2356 610 630 502 922 1367 1990 2720 3248 3191
-208 50 -362 261 80 874 874 1536 1026 25 412 746 828 986 887 1004 929 1071 935 398 1354 1578 1578 858 630 633 173 69 -23 -81 -56 -42 378 1299 1083 945 680 1605 1772 1772 2336 1099 1592 1388 1227 894 1876 2497 2274 1946 1320 435 384 95 -564 -564 -736 -885 -740 -273 858 601 -568 707 863 -16 537 631 -73 -850 -255 -255 923 169 -105 -468 -612 -807 -1099 -922 -1199 -1618 -1653 -1760 -1847 -1801 -1531 -1531 -1310 -1836 -1980 -1814 -2108 -2659 -2923 -2833 -2741 -2609 -2500 -2881 -2837 -2630 -1950 -1584 -1584 -2536 -2285 -1187 -1199 -1565 -616 195 463 -543 -2273 460 1245 -1399 -1658 -1065 -1065 -623 -1281 -1505 -1310 -1077 -1047 -1300 -1004 -294 169 74 -2074 -3131 -126 -846 -846 -980 -1219 -1275 -1435 -952 -385 -615 -159 37 555 935 2226 2561 2619 1835 654 654 568 924 948 1347 -2641 -3033 -2800 -564 39 -918 -762 -1125 -1234 -1696 -1898 -1898 -1842 -1536 -1633 -1413 -1472 -1644 -1505 -1682 -589 -209 676 685 650 850 1801 1801 2242 1506 626 256 313 706 818 1294 891 825 476 -650 -1784 -933 1346 3099 3099 2658 1903 2290 2732 4181 813 1265 1132 4811 4551 3695 3484 3555 3351 2682 2682 2537 2682 3261 3403 4499 4962 3238 2511 2457 2508 2801 3678 3703 2542 2143 2143 2787 2418 3418 4948 4442 2901 4167 4693 4233 3356 2887 2898 2738 2585 2166 2166 1868 1566 1137 589 985 275 -920 -270 -228 231 -582 -165 5 -513 -882 591 591 -49 -45 328 930 1762 1678 2302 1253 2224 2116 1946 378 103 -154 -150 -150 201 -364 -338 -592 -646 -545 -509 -761 -836 -966 -688 -633 -1319 -1618 -1698 -1698 -1299 -1180 -805 -840 -315 658 788 439 -2692 -2528 -2628 -2444 2424 2406 2566 3242 3242 3967 4980 4321 4598 3588 3743 3665 3496 3366 3382 3784 3682 3527 3702 4827 4827 5061 4754 4841 4484 3849 4213 4222 4218 4092 3850 3891 4631 6136 4003 4719 4719 4669 3773 4462 3882 2810 3217 2773 2663 3331 2443 2682 4180 4126 3775 4880 2267 2267 173 -412 2660 2485 2409 2119 2067 1340 243 171 446 1508 1560 1851 276 276 508 1469 1366 1812 2028 2345 2942 2500 1006 291 -29 79 -41 -68 -192 -192 -410 283 -514 -579 785 1804 -467 -1335 459 4295 -813 -1477 -972 -837 -959 -959 2596 4587 4926 3971 2863 2323 1383 2075 2019 1859 788 741 772 296 -176 -243 -243 -11 -16 369 495 266 607 799 1325 1238 1987 3826 4162 3692 4112 5084 5084 4671 5756 2790 1921 2255 1835 1400 707 -1667 -2167 -2211 -2194 -2838 -2883 -3464 -3464 -3742 -4136 -4083 -3832 -2814 -5919 -5087 -3276 -3994 -4056 -4189 -4083 -3882 -4026 -3293 -3524 -3524 -3147 -2315 -2387 -1997 -1139 -1199 -1386 -1313 -517 -2734 -3234 -3133 1696 2040 1116 1116 1170 -155 155 -753 -855 -346 1253 1253 649 346 370 692 1177 651 534 534 853 3384 1339 -1267 -1398 2518 1326 234 -768 2386 1328 873 729 1395 1470 395 395 -353 -455 -166 262 290 -873 -483 492 582 253 1251 -1520 -3839 -4259 -4007 -4007 -3663 -3473 -1516 1042 805 592 773 1681 1713 301 -228 -106 -61 7 330 330 -339 73 852 -1290 -1385 1466 614 948 1170 1437 669 -607 -902 -1278 3849 3849 2554 1529 1423 2582 3561 3088 3510 3333 3234 2711
212 214 -299 3 500 76 76 670 -142 -199 -3 1156 1555 1929 1743 1655 1502 1863 1295 1498 1088 1300 1300 1123 129 324 -314 -86 536 -426 -206 41 134 835 1070 1075 1748 1917 1575 1575 422 -1 131 165 62 631 744 1643 2254 1509 651 595 417 54 -62 -62 -168 -254 -396 328 1288 1867 846 775 -268 -80 -321 175 -166 -249 17 17 784 1151 -5 -402 -591 -751 -838 -848 -812 -955 -2407 -1120 -1874 -1609 -1177 -1177 -1879 -1899 -2053 -1044 -1954 -2555 -2814 -3007 -3038 -2456 -1792 -2151 -2948 -2084 -938 -2160 -2160 -2378 -2460 -1937 -1778 -1496 59 -504 -1453 609 405 -817 -253 184 -1297 283 283 -411 19 -1221 -1663 -2179 -1904 -494 -210 637 -567 101 -1980 -3109 -488 -703 -703 -433 -1371 -2302 -2149 -1162 -308 -704 14 -1061 365 1316 2178 1683 -456 -1892 -1427 -1427 -924 -1290 1173 2813 2759 1115 593 854 -100 -1320 -1080 -1314 -1599 -2177 -2152 -2152 -2344 -1986 -2004 -2129 -1618 -1891 -1571 -1089 -237 -622 149 745 853 696 1397 1397 -948 -53 366 153 13 409 190 682 973 1017 696 49 284 966 1202 1995 1995 2471 2423 2292 2841 3947 3091 939 2724 5855 5299 4969 3809 3585 3181 3494 3494 2958 3017 3793 3665 4725 4501 4570 4251 3241 3481 3119 3608 3331 3956 4051 4051 3192 1452 2111 5786 4088 3808 3482 4564 4629 3889 2817 2786 2871 2378 1839 1839 1895 2027 2141 1778 772 147 -230 -485 -337 -63 -674 1241 756 423 -464 -419 -419 -67 -187 902 518 899 1722 -1232 -2349 -2676 -2012 1300 1275 562 87 -465 -465 203 -331 -407 -463 -476 -382 -358 -492 -358 -738 -872 -740 -454 -1283 -1379 -1379 -1045 -503 -715 -198 -22 256 660 924 -2407 -2764 -2765 -2667 2374 2528 3712 4981 4981 3340 1864 1542 2219 4926 3663 3258 3330 3390 3568 3575 3302 3404 4202 4575 4575 4412 4528 4800 4734 4000 3744 4355 2804 4343 4455 4830 5766 3772 4425 5386 5386 5159 5191 4951 3564 2720 3002 4021 4119 3639 4477 4225 3725 2836 3317 3892 4157 4157 2967 3315 3053 3124 3200 2977 3169 2966 651 340 477 1070 -54 -6 1543 1543 2129 2131 1998 1958 2344 1471 1537 1570 1272 668 286 1007 188 110 -849 -849 -252 -495 -499 -266 -712 -1066 -481 -1573 47 2635 920 -1113 -731 -973 -913 -913 306 2975 2245 2970 2548 1772 1226 2162 1443 2141 1810 1722 874 662 8 49 49 -31 -146 105 -112 -313 136 531 2289 1938 3075 135 250 1534 5044 3935 3935 4055 3773 1554 1381 1063 393 506 -888 -2002 -2396 -2336 -2273 -2620 -2780 -3650 -3650 -4007 -4030 -4216 -3992 -3487 -2739 -2743 -3290 -4176 -3991 -4090 -4075 -4129 -4144 -3598 -3348 -3348 -2880 -2411 -2102 -1840 -1587 -1035 -1348 -1497 -1374 33 -2220 -65 957 1059 683 683 475 508 604 44 -57 132 779 31 -87 -141 803 516 615 1078 612 612 456 838 2483 2875 1766 981 899 1393 1805 1262 1002 1428 1813 -798 895 132 132 -604 -499 -912 127 -256 -966 -1034 -162 159 -232 414 624 -3740 -4061 -4123 -4123 -3693 -3134 -1840 1121 1024 958 728 1032 1394 520 993 610 841 1363 1606 1606 -148 126 1306 765 -1334 1043 1476 -1261 1031 1504 3316 84 339 2358 2138 2138 2546 3166 2942 3284 3057 2676 2769 3195 2360 -630
