ncols        162
nrows        32
xllcorner    -4518927.3164
yllcorner    -368854.734424
cellsize     14231.450908273038
8004.83642578125 5932.9423828125 4331.0322265625 4295.88623046875 4311.4833984375 4504.88037109375 6310.99951171875 6310.99951171875 7346.0634765625 7124.6982421875 6302.35546875 5717.01123046875 6121.07958984375 7110.078125 6627.41796875 6783.64599609375 7253.2275390625 5636.630859375 7182.45166015625 8165.44921875 7259.40625 7746.8330078125 6052.42041015625 5598.2548828125 5598.2548828125 5490.99267578125 4992.95458984375 3903.581787109375 3436.97509765625 3200.3359375 3414.755126953125 2656.211669921875 3054.02587890625 3767.513916015625 3648.411865234375 2215.015869140625 2097.3681640625 1895.037841796875 1918.726806640625 1827.4039306640625 1827.4039306640625 1458.846435546875 1419.5595703125 1467.4205322265625 1474.425537109375 1574.91455078125 2140.932861328125 2932.245849609375 1138.2744140625 2183.059814453125 2901.820556640625 3619.06103515625 2247.228759765625 2401.35205078125 2329.391357421875 2667.973876953125 2667.973876953125 2896.010986328125 2678.50927734375 3250.950439453125 3750.32958984375 4823.62890625 5980.63720703125 5245.6298828125 5226.59912109375 5085.00244140625 4913.40771484375 4737.18212890625 2695.31298828125 5424.755859375 5656.86328125 4855.03271484375 2335.4052734375 2335.4052734375 3933.013671875 5317.74365234375 4578.38232421875 4155.8955078125 3543.8505859375 3673.507080078125 3340.3544921875 2709.34033203125 3469.125 3761.309814453125 3055.16748046875 3130.542724609375 3190.519287109375 2559.979736328125 4387.17626953125 4387.17626953125 3886.087158203125 2621.51806640625 1961.331787109375 2423.95751953125 3507.71728515625 3063.154052734375 3483.849853515625 2687.77587890625 2964.685302734375 962.62481689453125 3513.812255859375 3100.7041015625 2339.779541015625 3410.346435546875 2840.54150390625 2840.54150390625 3457.21533203125 3464.263427734375 3586.846435546875 2980.831787109375 3271.935302734375 3522.402587890625 3880.692626953125 2131.398681640625 1963.5435791015625 3065.548583984375 3334.6748046875 3060.7099609375 2959.362548828125 1820.4552001953125 1301.9539794921875 1301.9539794921875 1773.0513916015625 2872.269287109375 2129.56982421875 2261.206787109375 2115.0146484375 2426.8056640625 2171.26123046875 1462.7427978515625 2055.005126953125 1919.6396484375 1987.849853515625 1669.9783935546875 1533.2882080078125 712.4345703125 314.6884765625 241.9403228759765625 241.9403228759765625 -1.0086305141448974609 981.90985107421875 958.52825927734375 195.637939453125 733.63714599609375 705.7279052734375 773.313720703125 833.15618896484375 995.78631591796875 1733.0191650390625 1809.1868896484375 873.81707763671875 -289.939483642578125 -200.7226409912109375 -36.278751373291015625 -36.278751373291015625 218.73773193359375 -280.264617919921875 132.5888214111328125 601.789306640625 838.76416015625 1569.59228515625 494.545745849609375
8471.669921875 6525.962890625 4347.5595703125 4320.59716796875 4361.34375 4605.625 6699.5341796875 6699.5341796875 7679.4814453125 6795.11328125 6122.04248046875 5425.83447265625 6994.61767578125 7616.30224609375 6826.10498046875 6558.94677734375 6335.1875 6676.4609375 6421.80224609375 7491.2724609375 8680.1328125 7605.65087890625 7784.79833984375 6124.72119140625 6124.72119140625 5965.4130859375 5476.2216796875 4218.43896484375 3558.263671875 2833.985107421875 2777.816162109375 2836.836181640625 3376.66064453125 2959.663818359375 2854.060791015625 2148.5234375 2014.406982421875 1900.6524658203125 1734.1864013671875 1662.9969482421875 1662.9969482421875 1395.9979248046875 1400.7869873046875 1371.8099365234375 1364.933837890625 1457.3173828125 1892.8592529296875 2279.244873046875 2303.6748046875 2562.0009765625 2469.926513671875 2409.940185546875 3790.64111328125 2598.46630859375 563.91278076171875 2760.73876953125 2760.73876953125 2877.01953125 3534.41552734375 3177.019775390625 3674.018798828125 3696.639404296875 5828.74267578125 5191.09326171875 5051.70556640625 5646.90576171875 5421.72265625 4978.2705078125 3676.224365234375 4098.1123046875 3806.606689453125 3569.58935546875 3629.658447265625 3629.658447265625 4358.4453125 4045.088134765625 4141.75439453125 3847.705078125 3453.89453125 2954.765869140625 2900.09814453125 3576.650146484375 3469.17236328125 3760.033203125 3270.857177734375 3080.546630859375 4231.2724609375 3896.7216796875 3956.478271484375 3956.478271484375 3509.886474609375 2296.89990234375 1763.6387939453125 2562.212890625 3356.55078125 3307.465576171875 2986.52099609375 3104.63232421875 3555.298828125 2982.132080078125 3045.996826171875 2715.35595703125 2508.668701171875 2859.756103515625 3319.058837890625 3319.058837890625 3801.719482421875 4206.65673828125 3105.950927734375 3356.2587890625 1808.98486328125 4233.3388671875 3122.134033203125 1888.1512451171875 1615.524169921875 2329.955078125 3519.06689453125 2145.48779296875 1757.5462646484375 1533.691650390625 1837.010009765625 1837.010009765625 1278.2484130859375 982.798095703125 1416.5498046875 1753.1297607421875 1542.780029296875 1464.239990234375 819.21392822265625 1679.2999267578125 2941.580322265625 2529.24853515625 982.515380859375 1149.804443359375 1214.0977783203125 1198.156982421875 -503.70086669921875 1071.051513671875 1071.051513671875 1114.734619140625 1053.809326171875 863.31988525390625 224.81365966796875 567.22418212890625 625.7890625 856.7763671875 470.582275390625 586.213623046875 1255.3114013671875 1302.0428466796875 95.490753173828125 -202.996856689453125 -147.34832763671875 145.8695220947265625 145.8695220947265625 38.85894775390625 -141.7708587646484375 211.4066009521484375 765.20098876953125 1662.36083984375 1759.999267578125 1019.17156982421875
7574.6796875 7161.1533203125 4985.16748046875 4348.50634765625 4407.93017578125 5633.71044921875 7499.8037109375 7499.8037109375 6290.86181640625 5205.205078125 6066.96240234375 5565.486328125 7147.1943359375 7499.43505859375 7281.61572265625 7069.39794921875 6996.291015625 6847.81494140625 7124.298828125 7401.67822265625 8024.5986328125 7588.849609375 8068.22705078125 7062.0908203125 7062.0908203125 6975.81884765625 6335.2197265625 4701.43603515625 3910.44091796875 2936.2958984375 2772.1455078125 3156.482666015625 3484.65380859375 3441.646484375 2974.212890625 2230.8037109375 2063.361328125 1628.29833984375 1705.9666748046875 1622.125244140625 1622.125244140625 1304.648193359375 1306.2220458984375 1338.140625 1282.2493896484375 1303.19482421875 1666.2127685546875 2103.927001953125 2143.719482421875 2207.778564453125 2253.577880859375 2406.025390625 4126.02734375 2904.463623046875 2388.707275390625 2483.515869140625 2483.515869140625 2858.662353515625 2984.4443359375 3239.22412109375 3096.59716796875 2910.048828125 5716.53369140625 4650.6591796875 5382.72705078125 5454.40087890625 5486.01318359375 4947.99169921875 3723.67041015625 5246.66552734375 4943.7900390625 3502.593994140625 3442.863525390625 3442.863525390625 3555.236328125 3444.7880859375 5323.9482421875 4665.1201171875 2918.739013671875 2385.405029296875 2507.88232421875 3968.08447265625 3451.48486328125 4074.628173828125 929.47705078125 1106.4598388671875 3890.7470703125 4038.967041015625 3813.77001953125 3813.77001953125 4355.771484375 2924.689208984375 2518.6279296875 3375.659912109375 3753.882080078125 3574.60595703125 3299.658203125 2827.589111328125 2192.28564453125 2161.4736328125 2912.965087890625 2359.63427734375 2502.267822265625 2950.58642578125 2824.7373046875 2824.7373046875 3837.444091796875 3807.956787109375 2822.094482421875 2289.6796875 2078.433837890625 2836.356201171875 2438.568359375 1530.5654296875 1327.47607421875 2113.37841796875 3436.048828125 1893.9718017578125 1807.6365966796875 1764.1966552734375 1067.6343994140625 1067.6343994140625 448.93988037109375 318.39410400390625 432.1058349609375 1208.2156982421875 1204.7506103515625 938.2261962890625 702.4644775390625 1551.8839111328125 1686.8253173828125 2736.35546875 1285.8359375 1262.3818359375 1196.494873046875 900.64019775390625 434.8323974609375 846.48504638671875 846.48504638671875 431.419586181640625 606.95697021484375 604.3758544921875 1004.3033447265625 728.2679443359375 685.31787109375 463.489959716796875 554.78582763671875 574.45263671875 1033.3548583984375 1756.4063720703125 41.82439422607421875 -332.131103515625 391.771087646484375 198.879974365234375 198.879974365234375 113.86696624755859375 -67.67317962646484375 405.343780517578125 971.54095458984375 1510.16552734375 1597.296875 957.60357666015625
7303.0673828125 7960.294921875 7677.314453125 6918.6591796875 6855.84521484375 7598.01416015625 7452.60107421875 7452.60107421875 5921.2529296875 5193.42724609375 6419.6513671875 6843.056640625 6706.5498046875 6143.50390625 6497.78955078125 7142.037109375 7272.38916015625 6971.4560546875 7106.31884765625 7106.0419921875 8340.1474609375 8477.87890625 8187.7216796875 6770.40283203125 6770.40283203125 5505.2275390625 5821.98779296875 5879.49755859375 4426.99951171875 3649.093505859375 3050.16015625 2709.209228515625 3813.652099609375 3653.823974609375 3226.898681640625 2298.752197265625 2113.739013671875 2064.55419921875 1866.4293212890625 1610.89013671875 1610.89013671875 1669.5279541015625 1595.79736328125 1515.3199462890625 1459.0032958984375 1445.820068359375 1658.6456298828125 2137.45751953125 2232.229248046875 2292.538330078125 2121.465087890625 2581.703369140625 4096.37548828125 2774.52001953125 2619.034912109375 2786.5185546875 2786.5185546875 2859.373046875 3780.712158203125 3309.934814453125 3777.072509765625 3950.5322265625 5454.37939453125 6187.1298828125 6206.38037109375 5444.4404296875 5717.8525390625 5651.205078125 5741.1796875 5385.99365234375 4985.45849609375 4276.98486328125 4639.84912109375 4639.84912109375 4216.40234375 3183.596923828125 3825.88916015625 4107.43359375 2366.656005859375 2669.404052734375 3069.19970703125 3179.125244140625 3638.433837890625 4219.96142578125 1865.8328857421875 1561.396728515625 3572.0546875 3183.19775390625 3671.076904296875 3671.076904296875 3220.408447265625 3297.1171875 2768.02978515625 3839.47802734375 4563.67822265625 3633.092041015625 3745.4140625 3158.99560546875 2036.814697265625 1579.7603759765625 3084.25537109375 3151.004150390625 3188.505859375 2988.47998046875 3184.2529296875 3184.2529296875 4247.6669921875 4515.904296875 3994.589599609375 3124.275390625 2435.038818359375 2916.9677734375 2054.061767578125 1414.9005126953125 1858.7947998046875 2431.335693359375 3377.50439453125 1903.9791259765625 2294.1416015625 1630.3372802734375 569.29693603515625 569.29693603515625 414.227386474609375 454.85498046875 1184.4586181640625 1706.0660400390625 2540.340576171875 2167.77197265625 2416.65625 926.34442138671875 421.575439453125 588.41162109375 1569.9439697265625 1556.1240234375 1508.221435546875 962.2479248046875 693.93072509765625 1113.29443359375 1113.29443359375 1090.024658203125 83.38465118408203125 1654.7474365234375 1046.0970458984375 1281.32373046875 1257.7529296875 999.94482421875 1055.046142578125 529.0045166015625 640.08941650390625 1389.726318359375 1365.66455078125 901.5509033203125 628.99847412109375 64.5658721923828125 64.5658721923828125 -88.603973388671875 14.739510536193847656 814.0640869140625 1228.1895751953125 613.603759765625 1534.7523193359375 841.7584228515625
7329.88818359375 7100.98095703125 7817.19189453125 7873.7861328125 7728.88671875 6870.3427734375 6619.45751953125 6619.45751953125 7156.49072265625 6871.25341796875 7063.064453125 7427.33544921875 4780.7412109375 4605.9404296875 4957.4111328125 6533.3408203125 7425.7978515625 7287.2578125 7933.3759765625 8113.86279296875 8793.32421875 8845.3310546875 7037.14453125 5289.4697265625 5289.4697265625 4434.970703125 3672.403564453125 4458.38818359375 4939.9833984375 4089.232666015625 2239.18115234375 3698.1279296875 2259.51611328125 1210.1507568359375 3457.477294921875 3124.463134765625 2314.39306640625 2251.574462890625 2017.599609375 2178.77880859375 2178.77880859375 1930.5389404296875 1926.342529296875 1983.529296875 1937.7225341796875 1871.7186279296875 1967.0328369140625 2366.032958984375 2585.212646484375 2608.838623046875 2793.961669921875 3824.564208984375 3456.899658203125 2691.53173828125 2508.454345703125 2396.34619140625 2396.34619140625 3413.133544921875 1580.4974365234375 2304.432861328125 2484.5126953125 3144.396728515625 4676.78076171875 5326.2548828125 5475.3583984375 5335.56640625 5583.76953125 5677.59619140625 5782.01220703125 4876.78955078125 4468.84716796875 4976.50732421875 3716.64697265625 3716.64697265625 3667.6845703125 2494.359130859375 3230.85302734375 4565.029296875 4365.2646484375 4475.27294921875 4366.4306640625 3605.740478515625 2874.983642578125 3473.820068359375 5316.0693359375 5238.646484375 3560.1953125 2720.631103515625 3528.136962890625 3528.136962890625 3379.525146484375 3357.921142578125 3793.58837890625 2965.3125 4327.78759765625 5051.11083984375 3742.614990234375 2598.5234375 2615.282958984375 2975.682861328125 3150.0615234375 3171.266845703125 3192.734375 3181.2373046875 2881.99365234375 2881.99365234375 2802.807373046875 3444.38427734375 2400.832275390625 2564.469970703125 3036.327880859375 4445.423828125 3015.282470703125 1849.869140625 2567.38134765625 3163.421875 2743.6826171875 2295.25732421875 2339.151123046875 2455.083984375 2601.444091796875 2601.444091796875 2214.978515625 1611.900634765625 2171.46337890625 1895.7889404296875 1994.3668212890625 987.22998046875 915.245361328125 811.29815673828125 585.3175048828125 1649.18603515625 2080.77392578125 1932.809326171875 1219.9434814453125 1072.91845703125 1060.68212890625 1433.168212890625 1433.168212890625 1509.177734375 1786.7142333984375 1298.7318115234375 1419.2650146484375 1123.653564453125 784.23681640625 237.9082489013671875 1038.203857421875 -4.2997503280639648438 1026.6309814453125 1736.122802734375 1856.2872314453125 2286.277099609375 1314.326416015625 1366.494140625 1366.494140625 863.3006591796875 871.41949462890625 933.775146484375 1030.6912841796875 1203.6671142578125 2110.220703125 201.0721282958984375
6853.560546875 7071.76611328125 7725.8837890625 7198.712890625 7109.23828125 6742.60888671875 6863.576171875 6863.576171875 6974.08837890625 6601.25244140625 6927.9189453125 7301.54443359375 4663.34228515625 4589.609375 4612.76806640625 6025.53369140625 7646.82373046875 7265.83349609375 8137.37890625 8693.259765625 6312.79736328125 4925.30419921875 4911.37255859375 5544.52587890625 5544.52587890625 4150.3720703125 3840.47119140625 3604.867919921875 5042.3984375 3792.876220703125 3314.080810546875 3653.16796875 1357.3531494140625 1507.567626953125 3593.6416015625 3693.371337890625 2432.04736328125 2385.454345703125 2060.32861328125 2098.9169921875 2098.9169921875 2121.244873046875 2441.225830078125 816.0440673828125 1649.827392578125 2579.86669921875 2315.19970703125 1667.6859130859375 2784.08251953125 2671.7529296875 3404.404296875 4200.8720703125 3635.011962890625 2393.444580078125 2053.470947265625 2110.27587890625 2110.27587890625 3132.838134765625 4183.255859375 3667.246337890625 2186.817138671875 1825.08203125 2798.9853515625 4932.39306640625 5246.6123046875 5087.9697265625 4845.326171875 5217.138671875 6125.01220703125 4784.12890625 4505.4990234375 4652.8291015625 4136.18115234375 4136.18115234375 4292.1513671875 4026.463134765625 4710.25341796875 5043.7138671875 4981.84228515625 4828.21435546875 4903.2548828125 3662.46630859375 3864.97265625 2937.22412109375 4361.267578125 3827.8203125 2678.12646484375 2167.97021484375 3277.021728515625 3277.021728515625 3270.099609375 3311.483154296875 3347.18408203125 2759.91943359375 3542.947509765625 4155.67822265625 3780.435302734375 3304.547119140625 3079.45361328125 2636.040771484375 3284.8623046875 3516.12646484375 3410.874267578125 3893.920654296875 3489.01953125 3489.01953125 2174.73486328125 1937.6436767578125 1716.3861083984375 1663.1728515625 3923.649658203125 4559.900390625 4382.169921875 3073.494140625 1698.841552734375 2133.425537109375 1994.0633544921875 2382.157958984375 3109.028564453125 2694.417724609375 2295.22998046875 2295.22998046875 2953.57958984375 2432.465087890625 1683.5142822265625 1075.3310546875 1376.7940673828125 1339.7816162109375 1329.53955078125 1127.1077880859375 504.089630126953125 1222.1378173828125 2220.623046875 2388.72021484375 2204.049560546875 2570.01025390625 1044.5372314453125 1075.5084228515625 1075.5084228515625 1662.8184814453125 1797.741943359375 1197.2698974609375 1379.0111083984375 1266.96044921875 983.42877197265625 -280.974884033203125 1823.982421875 1560.1904296875 814.11956787109375 1874.43115234375 2349.101806640625 2336.281982421875 2830.02197265625 2480.60498046875 2480.60498046875 1332.0045166015625 1266.76171875 1080.6734619140625 1371.7906494140625 1456.973876953125 1770.920654296875 244.5579986572265625
6896.92431640625 7136.52392578125 7383.736328125 7580.57763671875 7389.63134765625 7188.00537109375 6882.8486328125 6882.8486328125 6928.6435546875 6375.91943359375 6767.7861328125 7337.21533203125 4966.31103515625 4900.900390625 5151.4580078125 5465.4296875 6066.53564453125 7608.39697265625 8900.181640625 7544.1103515625 4380.34716796875 3121.298583984375 2930.392822265625 3325.70703125 3325.70703125 4747.63330078125 4411.53564453125 3921.19287109375 5022.71875 4228.57470703125 3492.343994140625 3426.727294921875 3554.696533203125 2939.923828125 1041.4825439453125 3210.10400390625 2892.97216796875 2382.05908203125 2202.145263671875 606.17633056640625 606.17633056640625 2506.576904296875 2396.563720703125 1778.9681396484375 3205.269287109375 2764.562744140625 2631.3896484375 2499.7822265625 2692.1845703125 2853.618408203125 3964.107177734375 4226.40966796875 3542.550048828125 2819.876953125 2434.13623046875 2565.852294921875 2565.852294921875 3059.347412109375 3477.653564453125 3068.510009765625 2104.20947265625 1865.556640625 4128.05859375 5297.43017578125 5603.6572265625 5079.197265625 5242.78271484375 5519.1474609375 5709.10791015625 6245.92724609375 5704.517578125 5280.90185546875 4698.04345703125 4698.04345703125 5396.9501953125 4325.38720703125 5071.67138671875 4192.2177734375 5046.39990234375 4856.984375 3501.240966796875 3114.658203125 3748.013916015625 4030.364990234375 2402.9462890625 1684.393310546875 1906.364990234375 2052.015625 3414.154052734375 3414.154052734375 2746.4912109375 3840.03125 3785.5615234375 3618.57568359375 3503.964599609375 2299.157470703125 3519.439697265625 3311.15478515625 2622.221923828125 3166.908447265625 3470.887451171875 3268.93505859375 3425.17919921875 3573.056884765625 2928.62744140625 2928.62744140625 1415.719482421875 1821.1646728515625 1304.9078369140625 1582.9947509765625 2463.9462890625 4234.2236328125 4312.736328125 3691.51220703125 2617.805908203125 2060.1884765625 2384.1279296875 3246.03857421875 3064.04541015625 3079.539306640625 1881.999267578125 1881.999267578125 1901.673095703125 1425.48681640625 1800.1387939453125 1161.02099609375 1406.3343505859375 1425.4046630859375 1187.777587890625 1509.17578125 1355.2196044921875 542.550048828125 1881.2071533203125 1896.8402099609375 1116.9378662109375 166.2431640625 656.04345703125 369.462005615234375 369.462005615234375 176.7768096923828125 1565.03955078125 1597.7353515625 1866.589599609375 1087.1796875 724.36785888671875 457.96929931640625 583.25286865234375 671.078857421875 1140.3248291015625 1473.1776123046875 1892.6083984375 2103.219970703125 2772.614501953125 3017.32470703125 3017.32470703125 1399.1458740234375 1381.0244140625 1249.7847900390625 2061.858154296875 1748.8101806640625 1785.5146484375 2004.169189453125
6981.044921875 7139.89794921875 7599.80126953125 7362.43212890625 7544.212890625 7500.568359375 6849.26416015625 6849.26416015625 6733.666015625 6284.32275390625 6374.24755859375 7259.8408203125 6272.49169921875 6031.279296875 5507.109375 5646.6201171875 6048.46728515625 8251.1748046875 8486.6357421875 6240.91455078125 3720.01904296875 3082.06494140625 2839.960205078125 2959.26171875 2959.26171875 5331.83935546875 4435.5869140625 4576.4677734375 5045.11572265625 4096.974609375 3226.4228515625 3093.77685546875 3277.590087890625 4040.7041015625 2215.175048828125 4379.8369140625 3199.78515625 2474.138671875 2288.040771484375 2538.02001953125 2538.02001953125 2364.246826171875 2480.71826171875 2207.874267578125 982.861083984375 2846.34130859375 2693.47314453125 2805.2158203125 2877.55810546875 3151.27294921875 4391.65625 4244.74462890625 3315.14501953125 2842.0107421875 2480.340576171875 2412.318603515625 2412.318603515625 2676.861083984375 3559.255615234375 5041.93896484375 3687.631103515625 3680.025146484375 5291.43505859375 5690.9853515625 5540.41064453125 5661.73876953125 6002.720703125 5696.521484375 5448.73388671875 5796.29931640625 5830.048828125 5289.509765625 3122.02734375 3122.02734375 4563.44970703125 3644.9296875 4135.4423828125 3850.98388671875 4466.9140625 4365.84521484375 3094.545654296875 2138.22314453125 3285.4287109375 3481.73486328125 2271.78271484375 1295.829833984375 2342.71875 2322.501953125 3081.158203125 3081.158203125 3480.241455078125 3479.241943359375 3454.90185546875 2762.302734375 3605.19677734375 2940.490234375 3525.959716796875 2968.091796875 2456.236572265625 3108.72802734375 3752.0537109375 3709.61083984375 3627.122314453125 3688.0791015625 3291.406005859375 3291.406005859375 1931.591796875 442.5596923828125 1175.01708984375 1651.4910888671875 1785.631103515625 4946.71044921875 3954.113525390625 3291.936279296875 3030.379150390625 2312.54638671875 2304.4580078125 2829.3076171875 2954.380126953125 3030.27392578125 2109.658203125 2109.658203125 1495.237060546875 1157.366455078125 1914.706787109375 1561.22900390625 1196.1494140625 1241.7132568359375 1326.313720703125 1394.9815673828125 1596.9718017578125 1009.32342529296875 1520.842041015625 836.1611328125 905.21441650390625 1786.744384765625 307.821258544921875 500.1630859375 500.1630859375 311.63433837890625 923.7545166015625 1577.9476318359375 2012.31494140625 597.63323974609375 588.25311279296875 1040.205810546875 42.82909393310546875 216.6271514892578125 1235.2147216796875 1482.2694091796875 1708.4600830078125 2030.3170166015625 1713.543212890625 2119.97412109375 2119.97412109375 1682.404541015625 804.73480224609375 1147.4312744140625 574.04083251953125 906.82672119140625 1191.0474853515625 2397.971923828125
6922.24658203125 7183.95947265625 7536.4560546875 7244.681640625 6293.7490234375 5395.369140625 7109.57763671875 7109.57763671875 6697.328125 5899.9873046875 5135.7587890625 5414.037109375 6770.80810546875 7138.8427734375 7071.35791015625 7209.95068359375 7264.91259765625 7840.73876953125 8925.19921875 6314.2177734375 3745.3271484375 3149.711669921875 3306.07177734375 3182.763916015625 3182.763916015625 6364.6337890625 6133.5029296875 5911.5458984375 4376.513671875 3666.560302734375 3643.794921875 3401.556396484375 2512.59375 2717.77880859375 3389.921142578125 3895.0810546875 3231.984619140625 3022.7236328125 3254.929443359375 2302.39697265625 2302.39697265625 2210.04248046875 2343.53125 3074.546142578125 3232.54150390625 2164.864501953125 2929.078857421875 2691.68994140625 2864.41796875 4205.41845703125 3094.695556640625 3679.349609375 3362.804931640625 2725.065673828125 2626.538330078125 3053.477294921875 3053.477294921875 3005.284423828125 3319.109619140625 3361.26025390625 4551.5849609375 5092.41796875 4284.53125 4833.1259765625 5342.322265625 5160.4658203125 4439.4580078125 5598.26904296875 4922.8671875 4854.44775390625 4119.2841796875 2709.336181640625 2272.548095703125 2272.548095703125 2989.728759765625 3444.63818359375 3419.972900390625 4170.25390625 3909.052490234375 3355.2890625 2307.065673828125 2624.216552734375 3054.34912109375 3060.384765625 2421.871337890625 3013.47265625 2340.621826171875 3106.7109375 4164.73388671875 4164.73388671875 3652.740966796875 4617.0478515625 4012.22705078125 2712.523193359375 4035.365966796875 3231.4072265625 3533.712890625 3825.051025390625 2710.352294921875 2759.000732421875 3873.051025390625 3872.023193359375 3652.208984375 4621.6064453125 4417.78515625 4417.78515625 2647.308837890625 1755.6531982421875 1579.8619384765625 1678.8843994140625 2922.52978515625 5202.02099609375 4174.8828125 3516.412109375 3162.113525390625 2538.65966796875 2543.365234375 2258.841552734375 2976.501220703125 3360.26708984375 2099.820068359375 2099.820068359375 2236.97119140625 1630.3658447265625 1698.03759765625 1785.88671875 1480.9727783203125 1138.881103515625 1194.1485595703125 1218.1317138671875 1049.7574462890625 880.4837646484375 515.5946044921875 -58.660762786865234375 448.052642822265625 1080.1258544921875 544.9161376953125 440.2645263671875 440.2645263671875 185.985809326171875 193.3694915771484375 232.5681915283203125 235.408843994140625 745.14990234375 1056.1361083984375 80.83914947509765625 29.48592376708984375 -134.904998779296875 347.352325439453125 874.6361083984375 1003.56292724609375 925.0167236328125 908.96160888671875 1821.5504150390625 1821.5504150390625 1217.9881591796875 855.02691650390625 839.2999267578125 551.3896484375 381.433929443359375 812.72711181640625 960.27618408203125
6657.57373046875 6385.01904296875 7212.4208984375 7008.93212890625 7061.982421875 7052.6865234375 6982.7333984375 6982.7333984375 6622.01513671875 6005.380859375 5732.3828125 5264.23291015625 6237.41943359375 5852.53564453125 6207.9775390625 7167.228515625 7361.89453125 8291.0126953125 9251.6171875 8117.32080078125 5163.474609375 3599.614501953125 3788.1982421875 5421.43603515625 5421.43603515625 7916.4306640625 7105.5478515625 5518.41650390625 3981.670654296875 3757.567138671875 4049.32177734375 4068.655517578125 2410.419677734375 3108.602783203125 3123.54296875 3404.5 3801.914306640625 3229.896240234375 3359.266357421875 2874.974609375 2874.974609375 2290.101318359375 2400.79443359375 2711.2216796875 2104.637939453125 1800.0882568359375 2713.951171875 3786.937255859375 4473.9248046875 3115.99072265625 3235.330810546875 3333.6005859375 3000.75927734375 2485.40771484375 2991.502197265625 3019.25146484375 3019.25146484375 3022.216796875 2768.15625 2922.591796875 3727.67578125 5330.15771484375 4529.45361328125 3595.13525390625 3020.590576171875 4496.06591796875 5134.51708984375 4973.013671875 4794.34033203125 4314.0673828125 3466.2705078125 2348.034912109375 2836.301513671875 2836.301513671875 3635.3876953125 3781.262939453125 4812.6904296875 5193.03271484375 4499.626953125 3003.843017578125 3653.859130859375 3705.7626953125 3869.327392578125 3753.2119140625 3404.733642578125 2479.6064453125 2860.18603515625 3917.01025390625 5026.8408203125 5026.8408203125 4521.58203125 4115.291015625 3130.78564453125 2187.310302734375 2185.281982421875 4411.03759765625 3548.88525390625 3456.569091796875 2434.495361328125 3349.4794921875 3202.545654296875 4191.45361328125 4247.12060546875 4922.19677734375 3315.806640625 3315.806640625 2600.387939453125 1682.170654296875 2030.270751953125 3206.072998046875 3341.4150390625 3132.680419921875 2237.90771484375 3567.072265625 2880.8828125 2547.21875 2571.984130859375 2294.482666015625 2827.175048828125 3459.860107421875 3554.979248046875 3554.979248046875 3756.2275390625 2827.62255859375 1912.82080078125 2496.21337890625 1477.1243896484375 1235.5662841796875 1028.67724609375 1264.759033203125 2367.372314453125 1810.040283203125 -45.34030914306640625 29.112518310546875 358.638702392578125 1695.2349853515625 36.8988800048828125 109.4757080078125 109.4757080078125 107.07582855224609375 686.3603515625 1493.591796875 731.33026123046875 934.70196533203125 906.3941650390625 -27.085048675537109375 123.99829864501953125 184.802764892578125 1007.849609375 1339.343017578125 1543.8421630859375 1311.0042724609375 2520.328125 2158.89013671875 2158.89013671875 1232.833984375 512.5723876953125 390.86968994140625 295.837799072265625 154.429107666015625 164.67913818359375 254.647064208984375
6913.91748046875 6601.09521484375 7200.34619140625 6722.962890625 7100.6220703125 6737.40380859375 4471.1806640625 4471.1806640625 5762.99853515625 6536.0146484375 6275.48095703125 6230.49462890625 6579.08056640625 6641.26220703125 6339.5126953125 6448.97021484375 7112.90625 7840.1533203125 8887.7705078125 9282.376953125 7330.1884765625 5749.2626953125 6106.63818359375 7233.55029296875 7233.55029296875 6900.78955078125 6321.35302734375 5012.82421875 4152.3583984375 3977.755126953125 3384.65966796875 4024.219482421875 3117.21044921875 2878.74267578125 2793.68994140625 3180.916259765625 2948.774169921875 3316.27099609375 3722.483154296875 2773.26806640625 2773.26806640625 3523.484375 3572.193603515625 3030.339599609375 4388.31201171875 2975.336181640625 3133.16748046875 3066.533203125 3512.34228515625 2751.509033203125 2492.572998046875 2589.359130859375 2616.2197265625 3032.639404296875 3514.417236328125 3236.6005859375 3236.6005859375 3006.26708984375 2743.481689453125 2958.331787109375 3957.346923828125 3840.3701171875 3886.892822265625 4425.16064453125 4321.55712890625 3588.8359375 4550.92626953125 4678.369140625 5464.94189453125 4984.33837890625 4396.33984375 3344.8828125 3331.694580078125 3331.694580078125 3612.71630859375 4713.65478515625 4321.20068359375 4160.31640625 3164.31982421875 1607.0263671875 3312.697265625 3580.5576171875 3855.260009765625 4547.08984375 3916.94921875 3415.72900390625 3330.549560546875 3848.55712890625 4062.2314453125 4062.2314453125 3726.350830078125 4031.3388671875 2653.5517578125 2578.521728515625 3591.925048828125 4367.52734375 4157.0380859375 3473.232666015625 2802.0166015625 2856.693603515625 3228.067626953125 3946.221435546875 3957.478759765625 4985.37939453125 3941.053466796875 3941.053466796875 2969.6923828125 1352.5841064453125 1677.7755126953125 3115.503662109375 2408.278564453125 1974.0537109375 2484.740478515625 3692.460205078125 3123.613525390625 2868.24267578125 2520.305419921875 1816.481201171875 2181.17529296875 3804.434814453125 3723.626220703125 3723.626220703125 4244.7890625 4415.29638671875 2477.318603515625 2608.986328125 1964.762451171875 1462.95361328125 1577.1033935546875 1533.944580078125 1298.13720703125 2130.523193359375 102.25667572021484375 505.47625732421875 537.80126953125 1082.8267822265625 749.39935302734375 703.9295654296875 703.9295654296875 624.80029296875 1636.38525390625 2701.81884765625 1627.998046875 912.27020263671875 166.9952392578125 134.7819061279296875 300.981170654296875 687.47998046875 1279.6331787109375 1383.6068115234375 1572.081298828125 1254.102783203125 2146.3173828125 1833.48974609375 1833.48974609375 634.33685302734375 394.217132568359375 393.31842041015625 248.18603515625 212.3921661376953125 143.1342620849609375 230.645965576171875
6912.37451171875 7373.966796875 7039.1015625 7465.7802734375 7473.15185546875 6173.607421875 7115.58056640625 7115.58056640625 6827.71337890625 6209.65625 5689.9990234375 6597.17333984375 6239.15771484375 6261.37646484375 6468.83984375 6805.31103515625 7422.6630859375 7322.384765625 8116.5302734375 9088.6279296875 8455.0625 9419.87109375 8627.11328125 7831.26708984375 7831.26708984375 5932.56005859375 5479.44580078125 4968.11328125 4818.953125 4535.0341796875 3692.93505859375 3422.21826171875 3298.8671875 3159.37890625 2657.267333984375 1468.64599609375 3166.3681640625 3330.22509765625 3538.262451171875 3522.351806640625 3522.351806640625 3558.080810546875 3828.71435546875 3678.46044921875 3597.49072265625 3110.3076171875 2235.607421875 2341.980224609375 2580.487548828125 2390.97216796875 2689.2197265625 2909.57568359375 3180.86865234375 3397.64404296875 3544.540283203125 3482.908935546875 3482.908935546875 3219.875 2944.13427734375 4232.8818359375 3884.429443359375 4400.2509765625 1935.1868896484375 3164.08251953125 3959.72216796875 3356.945068359375 4112.63525390625 3246.576904296875 3296.048828125 5701.95703125 4736.03466796875 4463.03125 3774.654541015625 3774.654541015625 3710.348876953125 3514.32861328125 3615.485107421875 3359.515380859375 3129.62158203125 2411.534912109375 3037.881103515625 2369.99951171875 3092.598876953125 3261.86181640625 3268.959228515625 3128.8427734375 2443.094482421875 3323.91943359375 3741.845458984375 3741.845458984375 3677.126220703125 3822.3583984375 3555.10498046875 3511.846923828125 4044.628173828125 2827.585205078125 3834.58349609375 3761.419677734375 3073.310546875 2793.2412109375 3371.010009765625 4439.21630859375 3744.248779296875 4190.27001953125 4186.4208984375 4186.4208984375 3070.218017578125 2191.748046875 2450.6962890625 3344.052001953125 2712.316650390625 2571.825927734375 3917.441162109375 4265.10546875 3049.23046875 1940.2645263671875 2170.258056640625 2957.18408203125 2993.85009765625 5174.4990234375 3332.9052734375 3332.9052734375 3465.565673828125 3483.8623046875 3013.40869140625 2494.034912109375 2572.322021484375 3069.260009765625 2423.834716796875 2640.11962890625 1858.7015380859375 1937.181640625 1243.3836669921875 1014.640869140625 1806.1038818359375 923.9697265625 1060.2132568359375 1487.0008544921875 1487.0008544921875 1153.1754150390625 909.9010009765625 585.3128662109375 582.84881591796875 592.5474853515625 408.839385986328125 963.5107421875 1061.240966796875 928.30419921875 1233.268310546875 1220.114501953125 2109.52294921875 795.719482421875 1320.341064453125 1769.5804443359375 1769.5804443359375 707.6402587890625 497.229095458984375 296.6561279296875 234.087860107421875 181.6569061279296875 135.08294677734375 144.870330810546875
6781.1845703125 8055.26416015625 7310.74072265625 8233.64453125 7705.5185546875 6889.16455078125 6513.8359375 6513.8359375 6334.09521484375 5613.10009765625 5072.33203125 6951.53369140625 6646.783203125 6573.263671875 6567.2890625 7834.892578125 7688.80859375 7799.22265625 8227.6083984375 8490.10546875 7350.68505859375 8757.5224609375 8168.654296875 7657.15087890625 7657.15087890625 7938.3701171875 6676.95751953125 5808.26025390625 5201.8994140625 5049.93359375 3569.69580078125 3198.322265625 3194.29736328125 2899.013427734375 3016.16455078125 3265.3623046875 3401.341064453125 3473.62451171875 3382.897216796875 3670.470947265625 3670.470947265625 3548.013671875 3490.253662109375 2917.85400390625 2610.2490234375 2883.208740234375 2309.66552734375 2322.619140625 2276.87109375 1913.8648681640625 2838.8017578125 2992.44775390625 2756.486572265625 2940.33056640625 3146.1806640625 3281.618408203125 3281.618408203125 3098.367431640625 3289.085205078125 4743.00341796875 4330.4833984375 2953.048583984375 3060.13818359375 2029.491943359375 1897.6881103515625 2797.6982421875 3463.474853515625 3885.9814453125 2605.24462890625 4926.59912109375 3763.90771484375 3715.93798828125 3177.739501953125 3177.739501953125 2862.06640625 3667.75 3072.628173828125 3425.45263671875 3470.458251953125 2757.415283203125 3436.0146484375 3297.956787109375 2576.425048828125 2991.169921875 3210.280029296875 3190.038818359375 3741.036865234375 3232.414794921875 3114.3603515625 3114.3603515625 3222.893798828125 4050.569091796875 4548.1865234375 4712.98388671875 4303.27783203125 2416.359130859375 3166.028076171875 3449.95654296875 4741.11572265625 4410.81884765625 2807.142822265625 3710.640869140625 3815.659912109375 4011.765869140625 4795.599609375 4795.599609375 4366.25927734375 3635.79931640625 2790.02294921875 3025.41455078125 3599.87841796875 3569.537109375 3018.343505859375 3262.26220703125 3015.473388671875 2108.805419921875 2365.092529296875 3007.08056640625 2760.0087890625 3206.204345703125 3413.904052734375 3413.904052734375 3378.305908203125 3426.930419921875 2775.769287109375 3024.7177734375 2527.68115234375 3065.3359375 2413.42138671875 2259.7373046875 2180.549560546875 2165.14599609375 1257.7275390625 928.43609619140625 1200.7591552734375 675.558349609375 1188.92333984375 1203.9801025390625 1203.9801025390625 1772.5086669921875 824.55340576171875 553.734130859375 371.538543701171875 567.218505859375 616.0518798828125 795.83563232421875 1011.8260498046875 1234.9989013671875 2143.701904296875 1916.07568359375 1937.61328125 2426.177001953125 2733.052490234375 1633.7984619140625 1633.7984619140625 506.534271240234375 640.04290771484375 529.802490234375 363.050506591796875 281.4405517578125 180.1924591064453125 340.650726318359375
6781.1845703125 8055.26416015625 7310.74072265625 8233.64453125 7705.5185546875 6889.16455078125 6513.8359375 6513.8359375 6334.09521484375 5613.10009765625 5072.33203125 6951.53369140625 6646.783203125 6573.263671875 6567.2890625 7834.892578125 7688.80859375 7799.22265625 8227.6083984375 8490.10546875 7350.68505859375 8757.5224609375 8168.654296875 7657.15087890625 7657.15087890625 7938.3701171875 6676.95751953125 5808.26025390625 5201.8994140625 5049.93359375 3569.69580078125 3198.322265625 3194.29736328125 2899.013427734375 3016.16455078125 3265.3623046875 3401.341064453125 3473.62451171875 3382.897216796875 3670.470947265625 3670.470947265625 3548.013671875 3490.253662109375 2917.85400390625 2610.2490234375 2883.208740234375 2309.66552734375 2322.619140625 2276.87109375 1913.8648681640625 2838.8017578125 2992.44775390625 2756.486572265625 2940.33056640625 3146.1806640625 3281.618408203125 3281.618408203125 3098.367431640625 3289.085205078125 4743.00341796875 4330.4833984375 2953.048583984375 3060.13818359375 2029.491943359375 1897.6881103515625 2797.6982421875 3463.474853515625 3885.9814453125 2605.24462890625 4926.59912109375 3763.90771484375 3715.93798828125 3177.739501953125 3177.739501953125 2862.06640625 3667.75 3072.628173828125 3425.45263671875 3470.458251953125 2757.415283203125 3436.0146484375 3297.956787109375 2576.425048828125 2991.169921875 3210.280029296875 3190.038818359375 3741.036865234375 3232.414794921875 3114.3603515625 3114.3603515625 3222.893798828125 4050.569091796875 4548.1865234375 4712.98388671875 4303.27783203125 2416.359130859375 3166.028076171875 3449.95654296875 4741.11572265625 4410.81884765625 2807.142822265625 3710.640869140625 3815.659912109375 4011.765869140625 4795.599609375 4795.599609375 4366.25927734375 3635.79931640625 2790.02294921875 3025.41455078125 3599.87841796875 3569.537109375 3018.343505859375 3262.26220703125 3015.473388671875 2108.805419921875 2365.092529296875 3007.08056640625 2760.0087890625 3206.204345703125 3413.904052734375 3413.904052734375 3378.305908203125 3426.930419921875 2775.769287109375 3024.7177734375 2527.68115234375 3065.3359375 2413.42138671875 2259.7373046875 2180.549560546875 2165.14599609375 1257.7275390625 928.43609619140625 1200.7591552734375 675.558349609375 1188.92333984375 1203.9801025390625 1203.9801025390625 1772.5086669921875 824.55340576171875 553.734130859375 371.538543701171875 567.218505859375 616.0518798828125 795.83563232421875 1011.8260498046875 1234.9989013671875 2143.701904296875 1916.07568359375 1937.61328125 2426.177001953125 2733.052490234375 1633.7984619140625 1633.7984619140625 506.534271240234375 640.04290771484375 529.802490234375 363.050506591796875 281.4405517578125 180.1924591064453125 340.650726318359375
6764.68359375 8031.53955078125 7031.7470703125 7266.3369140625 6597.494140625 6619.1376953125 6468.27490234375 6468.27490234375 5907.044921875 6463.234375 6335.49072265625 6450.95458984375 7161.67578125 7308.69873046875 6963.3671875 7273.22900390625 7717.0810546875 6564.439453125 8073.0029296875 9032.40234375 8170.712890625 7910.94873046875 7474.71875 7924.298828125 7924.298828125 8212.23046875 7638.2998046875 6015.740234375 3247.16015625 4476.5947265625 3722.97607421875 3240.320556640625 2602.36279296875 3125.1591796875 3027.781494140625 2979.9599609375 3539.39013671875 3586.801513671875 3272.261474609375 3097.763427734375 3097.763427734375 3006.198974609375 3249.33447265625 3137.096923828125 3560.522216796875 3255.59228515625 2895.265380859375 2631.62548828125 2612.80029296875 2513.094482421875 2586.3232421875 2930.433349609375 2755.004638671875 2995.48681640625 2972.94287109375 3239.44580078125 3239.44580078125 2928.091796875 4560.00927734375 4704.84130859375 4144.2890625 3259.886474609375 2710.173583984375 3058.5888671875 2424.735595703125 2490.929931640625 3171.501708984375 2907.346435546875 3000.3857421875 5833.01025390625 3423.13330078125 3969.746337890625 2230.513671875 2230.513671875 2636.3193359375 3185.836181640625 2979.731689453125 3328.79443359375 3869.692626953125 4215.85546875 3775.640380859375 3627.062744140625 2753.142578125 2481.323974609375 3241.621337890625 2761.97021484375 1494.221923828125 3716.0224609375 3297.74169921875 3297.74169921875 3963.559326171875 3764.309326171875 4774.34033203125 4324.3720703125 4384.15673828125 2987.90771484375 2579.90087890625 3444.619873046875 4708.71630859375 4649.55078125 5041.63330078125 4346.44921875 4179.375 3835.672119140625 4964.95166015625 4964.95166015625 4645.798828125 4367.99169921875 2894.445068359375 3358.6748046875 2146.34375 4063.917236328125 3778.54541015625 3195.19384765625 2311.91259765625 1515.1934814453125 2486.0849609375 3155.836181640625 3188.272216796875 3824.1572265625 3460.6162109375 3460.6162109375 3422.31591796875 3741.664306640625 3108.176025390625 3046.318115234375 2569.08740234375 1934.4539794921875 1020.4267578125 467.249053955078125 1749.372802734375 1894.2005615234375 948.34991455078125 1198.83642578125 1074.712890625 1328.364501953125 1451.409423828125 1291.6058349609375 1291.6058349609375 1605.74169921875 637.5203857421875 590.430908203125 312.3331298828125 653.842041015625 635.865966796875 474.950897216796875 1110.0352783203125 1057.2841796875 2005.7589111328125 1356.90478515625 1448.8153076171875 2077.624267578125 2428.418701171875 1918.3248291015625 1918.3248291015625 519.44818115234375 743.9830322265625 543.7581787109375 390.86529541015625 615.67645263671875 372.327301025390625 263.07073974609375
7941.10400390625 7871.00244140625 6842.19677734375 7127.2841796875 7525.19091796875 6447.41162109375 6375.87451171875 6375.87451171875 5991.82568359375 5818.7880859375 5821.85595703125 5194.21044921875 4766.05517578125 6747.61474609375 6562.763671875 6833.6298828125 6183.875 6802.951171875 7177.09619140625 7931.0185546875 7829.8681640625 7710.71728515625 7742.48095703125 8246.10546875 8246.10546875 7505.82666015625 7394.8896484375 7801.57177734375 6035.46630859375 5044.787109375 3424.164794921875 3316.335693359375 3245.850830078125 3543.29150390625 3842.549560546875 3288.043701171875 3227.556884765625 3429.994873046875 3377.859375 3120.873046875 3120.873046875 2460.21533203125 2748.651123046875 3543.594970703125 3125.675048828125 3105.040771484375 3275.221923828125 3116.86328125 2545.677734375 2247.741455078125 2535.529296875 2864.529052734375 3613.96484375 3390.315185546875 3318.160400390625 3729.839111328125 3729.839111328125 4113.009765625 6493.189453125 4611.53125 3706.12255859375 3574.8388671875 4113.513671875 3378.08984375 2459.64697265625 2547.48828125 4688.14697265625 5516.59619140625 6417.70849609375 5916.88623046875 5466.0537109375 5158.79150390625 3505.83642578125 3505.83642578125 2782.73388671875 2844.498046875 3701.08251953125 4222.1953125 4317.87109375 3116.107177734375 3540.604736328125 4158.634765625 4276.88818359375 3073.98193359375 3303.365234375 2168.322265625 1313.3016357421875 3623.097412109375 3900.518798828125 3900.518798828125 3958.32080078125 3562.011962890625 4822.39208984375 4245.9072265625 4307.880859375 3844.313232421875 3729.205322265625 3616.893798828125 3926.65869140625 5399.4052734375 4655.5908203125 4501.955078125 5035.4033203125 4887.45068359375 4942.39208984375 4942.39208984375 5148.33544921875 4601.6396484375 5620.5439453125 4071.44580078125 3988.39697265625 5054.90576171875 5635.0703125 5413.87548828125 3271.42724609375 1922.0628662109375 3060.851806640625 3569.592529296875 3454.511474609375 3848.113525390625 3080.836181640625 3080.836181640625 3515.53076171875 3438.70166015625 3204.367431640625 2907.169189453125 2423.395751953125 1911.700927734375 1499.0648193359375 1699.8927001953125 1675.2144775390625 1693.291259765625 986.82061767578125 1133.3212890625 562.87506103515625 715.05511474609375 2376.35498046875 1981.1414794921875 1981.1414794921875 1472.727294921875 1006.89166259765625 974.9791259765625 754.0487060546875 443.368316650390625 620.27545166015625 719.466552734375 369.6551513671875 1047.382080078125 979.157958984375 1514.29541015625 1090.946044921875 1087.7725830078125 1825.0914306640625 2052.10595703125 2052.10595703125 686.18817138671875 718.9010009765625 539.78094482421875 614.2886962890625 614.252197265625 427.11322021484375 198.8983154296875
8365.939453125 7249.029296875 6958.6357421875 4276.0830078125 4088.68310546875 7108.5859375 6631.53662109375 6631.53662109375 6154.1455078125 6761.5859375 6961.39892578125 5616.5224609375 5764.345703125 6820.69482421875 6656.5478515625 6691.13818359375 5107.7275390625 5230.5576171875 7400.14599609375 7054.4228515625 6486.0615234375 7635.83544921875 8105.94091796875 8143.0029296875 8143.0029296875 8423.0654296875 7907.1103515625 7893.03564453125 7624.908203125 7760.98486328125 5754.15380859375 3626.815185546875 3717.046875 3558.511962890625 4375.81298828125 4142.88818359375 489.59906005859375 3089.57763671875 2625.07958984375 3241.576171875 3241.576171875 3927.18017578125 3724.710693359375 3385.008544921875 3131.104248046875 2743.971923828125 2839.6484375 3225.283935546875 3527.732421875 3661.02734375 2919.751953125 1508.9320068359375 3689.672119140625 4606.02734375 4455.61279296875 4976.54052734375 4976.54052734375 6435.35009765625 6374.21630859375 4862.865234375 4328.29150390625 4947.87646484375 3013.883544921875 3401.80419921875 2261.9736328125 2221.081298828125 4090.521240234375 5485.15869140625 6774.60986328125 5932.029296875 5474.2138671875 5777.25048828125 5701.44482421875 5701.44482421875 4642.63330078125 2185.294677734375 3064.5068359375 4794.1474609375 4993.99169921875 4177.0517578125 3884.552734375 4304.3359375 4577.1142578125 5021.658203125 4114.8076171875 3306.082763671875 3268.13037109375 3107.76318359375 2898.721923828125 2898.721923828125 3032.081298828125 3565.6279296875 4696.197265625 5049.5634765625 5069.48681640625 5068.71142578125 4769.01806640625 4541.49853515625 4522.98291015625 5366.5947265625 4150.19384765625 4405.95654296875 4910.9287109375 5400.4404296875 5824.919921875 5824.919921875 5618.8427734375 4788.5712890625 3974.91796875 4701.9013671875 5316.33984375 4988.92236328125 4065.60205078125 4832.6044921875 6086.48876953125 4608.61083984375 3235.577880859375 2545.814697265625 2378.21826171875 2696.718505859375 3316.61181640625 3316.61181640625 4007.5615234375 3490.79833984375 3493.77197265625 3476.593017578125 2842.3837890625 3000.722900390625 2196.0029296875 2010.73876953125 1963.72900390625 1999.5601806640625 1446.0345458984375 1321.246337890625 1080.663330078125 1036.0989990234375 2692.799560546875 2589.621337890625 2589.621337890625 1266.8814697265625 840.7772216796875 1833.726806640625 1641.246826171875 789.2811279296875 986.05804443359375 1020.41741943359375 1647.86865234375 1155.331787109375 1813.6033935546875 1787.1571044921875 1715.138916015625 1986.6588134765625 1871.4710693359375 2000.5340576171875 2000.5340576171875 1599.1724853515625 371.00640869140625 376.169586181640625 618.936279296875 475.719146728515625 761.552001953125 1007.54595947265625
7506.220703125 7220.25048828125 5287.65185546875 3579.30224609375 3470.137451171875 7088.86962890625 6801.06103515625 6801.06103515625 6613.55908203125 6106.90869140625 6661.35498046875 6613.94189453125 6630.17529296875 6802.48046875 6903.41650390625 5597.63916015625 6040.93212890625 5214.96337890625 6010.3408203125 6258.89306640625 6708.66357421875 7549.49072265625 7338.83740234375 7079.53515625 7079.53515625 7973.1708984375 7901.8134765625 6154.00244140625 7801.43115234375 7671.26220703125 7994.96142578125 5386.87060546875 4758.716796875 4429.66796875 2866.8388671875 4065.965576171875 3206.36767578125 3133.23046875 3086.763427734375 3145.50048828125 3145.50048828125 2779.1591796875 2928.040771484375 3782.30029296875 1933.2010498046875 2623.6884765625 2618.007080078125 2994.082275390625 3315.224365234375 3467.578369140625 3828.642822265625 2795.0908203125 3636.37060546875 4482.17041015625 5200.86083984375 7280.626953125 7280.626953125 7255.41259765625 6187.60205078125 4901.7822265625 5382.02490234375 4534.8564453125 2932.4091796875 2856.233154296875 3293.59814453125 3517.42822265625 3536.327880859375 5318.2119140625 6295.40087890625 6058.09033203125 5859.5341796875 6019.58740234375 6410.896484375 6410.896484375 4625.08837890625 3687.39892578125 3936.985595703125 5057.72216796875 4934.84130859375 4286.1552734375 4797.6552734375 4438.1533203125 3873.2568359375 4303.5625 4491.70458984375 3148.923828125 2482.658447265625 3272.744384765625 3309.5361328125 3309.5361328125 2887.127685546875 4001.5068359375 4135.50146484375 5136.43212890625 6022.791015625 5345.77294921875 5266.578125 5772.818359375 6078.966796875 5179.99853515625 4078.159912109375 4640.00146484375 4937.87841796875 3868.734130859375 3969.90283203125 3969.90283203125 3362.3671875 3231.933349609375 3544.244873046875 3102.420166015625 2313.807373046875 2584.033203125 2868.54052734375 2557.135498046875 3799.315673828125 3466.905517578125 2586.542724609375 2282.0048828125 2292.425537109375 2236.34326171875 3068.878173828125 3068.878173828125 3086.58740234375 3348.998779296875 3023.45556640625 3368.837158203125 3202.030029296875 3134.8720703125 2432.4541015625 2685.848876953125 2358.478515625 1832.257080078125 1569.8367919921875 1964.4586181640625 1195.89111328125 1402.0225830078125 2492.19580078125 1808.3692626953125 1808.3692626953125 -348.802764892578125 -777.058349609375 -786.82879638671875 1518.8779296875 1667.0438232421875 1417.9937744140625 1112.0899658203125 1664.5849609375 1373.5050048828125 1897.3026123046875 1619.659423828125 1787.927490234375 1833.1611328125 1069.056884765625 1080.3590087890625 1080.3590087890625 2461.654296875 2477.070068359375 1584.5394287109375 754.68194580078125 963.15386962890625 777.7921142578125 1482.55712890625
6046.89404296875 7293.79150390625 7167.54296875 5156.13134765625 4974.23779296875 7050.2666015625 6267.4111328125 6267.4111328125 5826.49462890625 5629.58837890625 5861.0673828125 6762.634765625 6753.81689453125 6886.0986328125 6728.59033203125 6557.337890625 6214.20068359375 5739.072265625 6294.34716796875 6629.2265625 6076.81884765625 6877.97314453125 4800.19140625 6860.2373046875 6860.2373046875 6759.607421875 7917.4140625 7022.71875 7398.33056640625 8399.6875 8380.2509765625 6609.48193359375 6567.51513671875 5036.61572265625 3463.1015625 4221.35009765625 3446.071533203125 3126.852783203125 1909.9287109375 3022.078369140625 3022.078369140625 3142.48583984375 2717.34326171875 3040.24267578125 3290.9169921875 3013.824951171875 2228.771484375 2799.537109375 2773.770263671875 3400.577392578125 3323.95068359375 3338.7001953125 3997.674560546875 5770.60009765625 4464.65625 6272.26513671875 6272.26513671875 7303.4677734375 6314.11962890625 6721.09423828125 5725.19091796875 5200.35888671875 4474.0888671875 4106.66064453125 4633.6943359375 4868.3154296875 4245.509765625 4691.369140625 5604.310546875 5614.1357421875 6554.06201171875 6916.33349609375 5600.37548828125 5600.37548828125 5310.02490234375 4153.921875 3373.72021484375 4329.66015625 4978.14306640625 5250.7734375 4579.68701171875 4742.962890625 3557.40185546875 3704.385986328125 3879.622802734375 4053.68310546875 4386.328125 3323.201904296875 4661.09912109375 4661.09912109375 4656.5595703125 4173.52685546875 4188.79248046875 5250.0341796875 5661.900390625 5514.19287109375 6227.83544921875 5836.72119140625 5050.63818359375 4712.9775390625 3392.049560546875 4025.235107421875 3456.704833984375 2691.9755859375 2399.487060546875 2399.487060546875 2541.91748046875 2673.24853515625 3263.3984375 2685.0517578125 1761.19775390625 1700.038330078125 2050.985595703125 2166.2607421875 2007.1463623046875 2042.41796875 2084.63427734375 1814.1116943359375 2083.1767578125 1862.5198974609375 1681.77294921875 1681.77294921875 1721.0753173828125 1515.714111328125 1418.334716796875 1505.4754638671875 3170.4794921875 3314.4033203125 3134.7744140625 2519.48876953125 2117.7919921875 1992.9991455078125 1721.7760009765625 2173.810302734375 2132.72705078125 3263.141357421875 2001.64404296875 117.659820556640625 117.659820556640625 -1019.8612060546875 -833.41748046875 -946.6304931640625 69.160491943359375 2267.155029296875 1218.240966796875 219.5340118408203125 318.696533203125 185.0224761962890625 1926.7076416015625 1099.45068359375 1077.6224365234375 379.483551025390625 783.37164306640625 670.10986328125 670.10986328125 867.6552734375 569.32305908203125 2272.593994140625 2021.2252197265625 1423.3900146484375 1801.8841552734375 1787.5054931640625
7382.9443359375 7214.0419921875 7236.9306640625 7305.341796875 6664.6015625 6752.302734375 6859.1669921875 6859.1669921875 6040.865234375 6255.1142578125 6413.51904296875 7333.685546875 5808.90234375 6059.71142578125 7159.681640625 6253.8349609375 5955.31494140625 6168.09130859375 6223.5712890625 6139.9169921875 5773.7578125 6095.61474609375 5785.2001953125 5872.10888671875 5872.10888671875 4568.80029296875 7410.57275390625 7462.10302734375 7890.3857421875 7683.72314453125 7675.17431640625 7661.38330078125 6651.5478515625 5910.2265625 4049.16259765625 4635.482421875 3075.481201171875 3612.757568359375 3031.594482421875 2960.5078125 2960.5078125 3709.336181640625 4654.93701171875 3393.51513671875 3458.089599609375 3478.98095703125 4511.56005859375 4506.64697265625 4552.58544921875 4430.9375 5255.4169921875 4920.57275390625 6413.4462890625 6476.435546875 6284.54443359375 5763.0986328125 5763.0986328125 5844.9443359375 6371.87109375 5647.61962890625 5186.21044921875 5217.8095703125 5236.8017578125 4441.53466796875 4116.1640625 5051.28759765625 5258.27978515625 5692.935546875 6529.275390625 6154.78466796875 6424.15771484375 5712.25439453125 4707.52685546875 4707.52685546875 4176.0341796875 3279.90771484375 2991.162109375 3926.716796875 5655.62451171875 6232.50927734375 5037.69873046875 4602.45849609375 2974.8408203125 3093.969970703125 3826.214111328125 3947.31591796875 3988.46142578125 4228.10546875 3605.757568359375 3605.757568359375 4993.43408203125 4487.10888671875 5282.72900390625 5901.95849609375 5749.06591796875 5852.20751953125 5948.15185546875 6125.5849609375 3124.1083984375 2737.4658203125 3468.58349609375 3325.129638671875 3596.56103515625 2791.024658203125 2171.904296875 2171.904296875 2088.533935546875 2173.65283203125 2520.804931640625 2230.587890625 1905.249755859375 1859.9305419921875 2094.271484375 1934.9566650390625 1689.1405029296875 1872.9771728515625 1743.138916015625 1730.973876953125 2064.664306640625 1995.5174560546875 1601.550537109375 1601.550537109375 1539.3544921875 1266.66357421875 1000.40142822265625 952.01153564453125 821.50653076171875 1179.192138671875 1725.0732421875 1870.8319091796875 2024.416259765625 2742.36083984375 2310.931884765625 3190.03076171875 3449.994873046875 2483.669677734375 2415.260009765625 533.9881591796875 533.9881591796875 -969.3778076171875 -717.55230712890625 -827.32415771484375 218.8691864013671875 1985.58203125 392.1431884765625 -25.653865814208984375 225.205291748046875 182.9710540771484375 943.64898681640625 1009.357177734375 887.5660400390625 620.12347412109375 -23.148784637451171875 -535.79315185546875 -535.79315185546875 -434.695098876953125 906.20501708984375 1291.3306884765625 1622.6068115234375 1352.098876953125 2024.819580078125 1082.332275390625
7901.40869140625 7074.67919921875 6477.35791015625 6505.05029296875 6359.8984375 6046.880859375 5990.51318359375 5990.51318359375 6551.3544921875 6075.6240234375 6200.517578125 5549.77490234375 3981.59326171875 3869.615966796875 6116.59716796875 5984.7978515625 5942.72802734375 6199.9521484375 6148.3544921875 5585.6015625 5630.23876953125 5270.45556640625 5838.67578125 6041.1728515625 6041.1728515625 6550.6220703125 6937.76953125 8565.4130859375 7371.6259765625 6323.60791015625 7832.0576171875 7698.49658203125 6754.2978515625 6166.158203125 5240.0068359375 5764.79150390625 4459.14697265625 4031.55908203125 3585.6982421875 4030.948974609375 4030.948974609375 4975.1513671875 5024.56396484375 5565.43701171875 4339.169921875 4667.16357421875 6124.77734375 6180.14453125 5974.2451171875 3435.1953125 4384.46826171875 5961.59814453125 6622.072265625 6896.05810546875 6023.04248046875 5584.49658203125 5584.49658203125 5849.49365234375 5937.7041015625 5059.46875 4762.6533203125 5097.87451171875 5411.4951171875 4011.15283203125 3824.873779296875 5544.2939453125 5753.40087890625 5682.28759765625 4852.92724609375 5389.4736328125 5984.1875 5850.974609375 4287.06396484375 4287.06396484375 3952.36181640625 2721.91455078125 2743.25 4528.33984375 6344.1220703125 4565.8291015625 4727.43701171875 4342.859375 2910.477294921875 3489.852783203125 3982.0927734375 4117.21533203125 4474.51708984375 4668.9619140625 4339.1640625 4339.1640625 5201.81591796875 5248.2822265625 5665.5673828125 5305.1484375 6291.1220703125 5775.71435546875 5699.2158203125 6007.62353515625 3056.421630859375 2699.94873046875 2637.14892578125 3305.6611328125 2949.652099609375 2353.022705078125 2029.3572998046875 2029.3572998046875 2028.9622802734375 2403.92236328125 2462.43798828125 2300.290283203125 1912.9205322265625 1938.66259765625 2175.066650390625 2028.670654296875 1655.182861328125 1514.1993408203125 1116.0360107421875 1491.025390625 1608.4659423828125 1534.8016357421875 1530.0701904296875 1530.0701904296875 1535.5556640625 1215.0748291015625 954.6385498046875 849.7796630859375 944.40185546875 1004.2529296875 1202.4217529296875 1190.920654296875 2012.0257568359375 2872.3271484375 2710.92529296875 3377.4482421875 3198.906494140625 2665.9658203125 2273.37255859375 1199.1544189453125 1199.1544189453125 -778.27789306640625 -904.56646728515625 -722.6002197265625 886.18499755859375 1754.2503662109375 139.2614898681640625 157.2213592529296875 404.158721923828125 166.69427490234375 894.0347900390625 463.018829345703125 1006.5372314453125 1955.3280029296875 1475.5802001953125 671.86053466796875 671.86053466796875 -200.495513916015625 706.3099365234375 1323.2293701171875 1706.766357421875 1308.466796875 1340.7218017578125 949.13427734375
5637.4716796875 6314.80908203125 6394.22314453125 6317.8564453125 5975.21484375 6300.0634765625 6020.27880859375 6020.27880859375 6055.95849609375 5782.572265625 5724.38427734375 5085.6064453125 3662.217041015625 3657.0537109375 4565.0634765625 5979.29052734375 6131.587890625 6144.83935546875 6159.58203125 6082.40673828125 5788.22216796875 5539.828125 6012.72021484375 6128.81396484375 6128.81396484375 6265.3017578125 6308.3408203125 7009.8349609375 7189.3857421875 6636.486328125 7595.77880859375 7779.365234375 7930.8466796875 7827.6162109375 6882.26025390625 6856.9169921875 5511.04296875 5889.62060546875 5590.47998046875 6911.3095703125 6911.3095703125 5156.521484375 6463.3408203125 5865.486328125 6358.2509765625 6179.62109375 5764.3828125 6352.830078125 7206.69482421875 5784.81005859375 5750.33935546875 5266.61376953125 6428.01123046875 6329.2548828125 6840.81640625 5458.1669921875 5458.1669921875 5921.28564453125 6028.29345703125 5794.91162109375 5301.8759765625 4406.76904296875 3157.948486328125 3322.059326171875 4195.37939453125 5027.4638671875 5674.2529296875 4213.79345703125 4446.68994140625 4587.6240234375 4717.6015625 3642.0693359375 3030.093505859375 3030.093505859375 3304.229736328125 2707.2587890625 3558.6171875 5134.7314453125 6279.95068359375 5052.8095703125 3895.98876953125 4487.5966796875 4421.369140625 4476.07470703125 3183.491455078125 3805.129638671875 4547.39892578125 4933.0146484375 5316.2529296875 5316.2529296875 5419.6611328125 5444.94189453125 6103.54248046875 5259.5361328125 5853.54296875 6268.80029296875 6303.33984375 4491.5830078125 2350.88525390625 2064.801025390625 2050.078857421875 2824.052978515625 2317.12646484375 2009.2164306640625 1939.571044921875 1939.571044921875 2127.20849609375 2489.722412109375 2763.76025390625 2489.749755859375 2207.40771484375 2050.836181640625 2122.38671875 2247.14990234375 1894.9359130859375 1386.462646484375 1029.4722900390625 1239.5469970703125 1454.347900390625 1353.1033935546875 1259.1629638671875 1259.1629638671875 1014.35577392578125 973.90985107421875 830.2232666015625 592.20947265625 786.666015625 1096.9244384765625 1175.6021728515625 1264.451171875 1289.0533447265625 1150.740478515625 1050.6092529296875 1714.0302734375 1824.921875 2677.529541015625 3461.790771484375 2434.089111328125 2434.089111328125 1098.7308349609375 745.4764404296875 1160.5977783203125 2327.01220703125 2035.9605712890625 688.1251220703125 269.1932373046875 287.158355712890625 304.390045166015625 1109.1494140625 1594.51513671875 1581.0523681640625 2455.55224609375 2757.837158203125 2419.446533203125 2419.446533203125 1988.607666015625 2464.41015625 1158.0347900390625 854.16387939453125 1349.94091796875 501.73876953125 520.98291015625
5516.380859375 6265.86083984375 6976.166015625 6314.06591796875 6080.83203125 5266.26220703125 5791.53759765625 5791.53759765625 6079.771484375 5742.45654296875 6141.109375 6208.07275390625 4400.04345703125 4216.89501953125 5384.52490234375 5837.24365234375 5873.91357421875 6032.3701171875 5786.9111328125 5504.7333984375 5821.9208984375 6135.60009765625 6186.12939453125 6145.4990234375 6145.4990234375 6211.20458984375 5664.56689453125 6338.04443359375 7946.947265625 8028.44091796875 7000.94287109375 7979.1376953125 7851.2275390625 7073.80712890625 5740.11279296875 7698.61767578125 5967.24072265625 6682.677734375 6044.0224609375 6976.83642578125 6976.83642578125 4453.64208984375 5822.013671875 6690.55029296875 6648.359375 6050.4228515625 7334.9521484375 6734.875 6616.015625 6224.2119140625 5639.13427734375 6204.43310546875 5341.22900390625 6910.5615234375 6638.6669921875 5307.3212890625 5307.3212890625 6270.46337890625 5424.005859375 2956.846435546875 3625.63330078125 5488.19921875 4226.1728515625 4307.4814453125 3768.7216796875 3389.576904296875 4854.009765625 4006.72412109375 4082.78173828125 4215.21875 3087.17236328125 2669.4677734375 3270.994384765625 3270.994384765625 3340.496337890625 3044.647705078125 4169.77880859375 4665.51416015625 4884.28125 4937.62890625 4871.2724609375 5459.41455078125 4633.5830078125 5341.1640625 3669.918701171875 3991.27294921875 4383.775390625 4896.919921875 4782.11572265625 4782.11572265625 4721.10302734375 5063.8466796875 4605.1767578125 5845.67578125 6949.849609375 5652.4794921875 4571.0595703125 2713.62890625 2390.172607421875 2127.68212890625 2018.3431396484375 1857.8114013671875 1864.8521728515625 1885.9034423828125 2028.28662109375 2028.28662109375 2267.849609375 2917.792724609375 2853.389404296875 2256.869873046875 1688.199951171875 2259.729248046875 1663.5538330078125 2135.97509765625 2229.230712890625 2000.843505859375 1127.41796875 1368.76708984375 1909.69482421875 1279.3958740234375 1356.921630859375 1356.921630859375 1160.358154296875 1042.7510986328125 619.1156005859375 978.52044677734375 185.9420013427734375 1061.1964111328125 1653.274658203125 1490.014892578125 1399.3310546875 1168.77099609375 829.5301513671875 846.3504638671875 860.271484375 1012.95751953125 2084.837158203125 2514.216064453125 2514.216064453125 2563.71875 2088.07080078125 1817.888671875 1207.728271484375 941.08099365234375 919.23736572265625 1274.007080078125 519.14013671875 812.70501708984375 2091.71630859375 1814.727294921875 1744.8272705078125 2577.18310546875 2720.82470703125 2615.201171875 2615.201171875 2049.05126953125 2023.5345458984375 1009.018310546875 675.4893798828125 406.569091796875 692.478515625 375.576324462890625
5609.20166015625 6682.31005859375 6843.8349609375 5565.29150390625 6417.2138671875 6294.2333984375 6075.12451171875 6075.12451171875 5581.93017578125 5492.48876953125 5727.46484375 5422.95361328125 6408.33935546875 6076.7080078125 6233.14453125 5559.84033203125 5367.89111328125 6033.9365234375 5941.22412109375 6194.4111328125 5838.6787109375 6419.1318359375 6353.49462890625 6388.68505859375 6388.68505859375 5278.85400390625 5267.974609375 6709.96875 7158.0556640625 6829.126953125 6795.9541015625 7471.0693359375 7946.2880859375 7282.9560546875 7693.02197265625 6663.71728515625 6544.08251953125 7138.501953125 7581.97216796875 7692.64892578125 7692.64892578125 7356.6123046875 7901.1083984375 6851.32470703125 6984.6298828125 6788.634765625 7086.5859375 6479.90283203125 6277.41943359375 5756.353515625 5737.0126953125 7128.619140625 5747.92529296875 6716.62548828125 6536.28759765625 5477.18408203125 5477.18408203125 5714.265625 3760.2978515625 1839.8994140625 1941.713623046875 4233.990234375 4424.6728515625 3723.7958984375 4270.00927734375 3413.65576171875 3726.0693359375 3729.410400390625 3044.66796875 4608.29296875 5023.20361328125 3478.296630859375 3949.40576171875 3949.40576171875 3927.458740234375 3999.758544921875 4659.18896484375 4929.45458984375 4597.04931640625 5370.986328125 5274.46728515625 5409.99951171875 5617.17333984375 5732.845703125 4789.9375 4490.9716796875 4760.64453125 5042.28173828125 4870.43603515625 4870.43603515625 4851.2734375 4708.57958984375 4374.916015625 4930.646484375 7423.81201171875 6112.28466796875 3154.34521484375 2704.383544921875 2121.810302734375 2082.880126953125 1949.51904296875 2073.544921875 1891.883056640625 1935.5943603515625 1863.0174560546875 1863.0174560546875 2112.757568359375 2667.991455078125 2432.65234375 1913.113037109375 1340.340576171875 1239.18896484375 1119.6746826171875 1877.6485595703125 1681.125 2427.2607421875 1330.9290771484375 730.2635498046875 1414.2347412109375 865.3328857421875 1354.4384765625 1354.4384765625 885.98638916015625 876.94964599609375 257.19635009765625 566.5262451171875 825.787353515625 929.662353515625 1518.5299072265625 1807.761962890625 1239.1287841796875 1160.08349609375 900.84124755859375 773.088623046875 585.4112548828125 260.884765625 1295.566650390625 1889.4251708984375 1889.4251708984375 2125.1845703125 1424.770751953125 757.1549072265625 1386.8214111328125 1021.66656494140625 1472.1063232421875 1146.0986328125 775.34417724609375 1332.0272216796875 1916.02734375 1883.5174560546875 1292.3218994140625 1920.712890625 1756.115966796875 2799.03662109375 2799.03662109375 1786.64453125 2175.498779296875 1493.2138671875 828.91986083984375 445.40008544921875 637.900390625 491.342529296875
7206.087890625 7020.736328125 6830.15283203125 6791.17626953125 6489.56396484375 6197.7216796875 6372.3349609375 6372.3349609375 6121.16650390625 5528.673828125 5532.26904296875 5719.22705078125 5817.453125 5902.587890625 5449.88671875 4301.2060546875 5918.05126953125 4896.21142578125 5358.955078125 5758.6904296875 6015.06103515625 6175.5703125 6515.5986328125 7121.62890625 7121.62890625 6954.814453125 6258.5263671875 7102.7646484375 7185.88720703125 6086.7919921875 6060.5732421875 7310.36376953125 7145.11572265625 7070.03955078125 6075.72998046875 7713.2236328125 6818.91064453125 7381.66259765625 7497.4306640625 6818.4931640625 6818.4931640625 6779.267578125 5340.3974609375 7004.29638671875 5775.90234375 4770.03466796875 6485.18701171875 6361.966796875 5979.74560546875 6052.02197265625 5464.75146484375 5458.83984375 5955.2958984375 6366.15869140625 6338.673828125 5958.1005859375 5958.1005859375 5508.7880859375 3755.0634765625 1951.0181884765625 2028.166015625 4628.05810546875 4309.92822265625 4479.71533203125 4743.71435546875 5244.8212890625 4225.28759765625 4130.71533203125 2632.59765625 3165.735107421875 4177.30615234375 4032.649658203125 3337.46826171875 3337.46826171875 4394.21533203125 4801.1630859375 4056.708984375 4523.9541015625 5181.8408203125 5462.55322265625 5504.779296875 5908.314453125 6453.78955078125 5641.01806640625 6230.59716796875 5940.95703125 5163.9853515625 5357.857421875 5368.552734375 5368.552734375 4796.7099609375 4978.70458984375 4202.42236328125 4341.1015625 4189.31689453125 2381.28759765625 2276.796875 1772.1888427734375 1708.35986328125 1884.5672607421875 1952.515625 1945.34130859375 1790.13134765625 1380.5059814453125 2046.2393798828125 2046.2393798828125 2267.369873046875 2664.09765625 2953.18115234375 1736.5823974609375 1577.8885498046875 1188.9857177734375 916.22344970703125 1565.90771484375 1142.9244384765625 1712.5745849609375 705.2655029296875 1207.1234130859375 476.572540283203125 -151.303863525390625 604.423583984375 604.423583984375 1156.593017578125 1353.0946044921875 116.031036376953125 -382.90887451171875 910.65704345703125 1504.70947265625 2106.260498046875 1970.0689697265625 1562.343994140625 1374.0908203125 1139.565673828125 897.45770263671875 482.3284912109375 273.18670654296875 406.4722900390625 414.626983642578125 414.626983642578125 86.592987060546875 1931.3411865234375 1676.3607177734375 1270.084716796875 1372.1544189453125 1816.8238525390625 1123.723388671875 668.1185302734375 682.6494140625 2285.440673828125 2329.67333984375 1501.021240234375 1291.1070556640625 1779.2318115234375 2666.62451171875 2666.62451171875 2108.38525390625 2391.272216796875 2671.90673828125 1467.2327880859375 535.20526123046875 451.622222900390625 383.53863525390625
7514.08349609375 5899.6943359375 5190.93408203125 5901.1982421875 5545.1328125 6216.6611328125 6149.2412109375 6149.2412109375 5903.39306640625 5758.6943359375 5649.04541015625 5571.31494140625 5926.24853515625 5641.33154296875 5720.60791015625 4189.94873046875 5630.28466796875 5540.939453125 5446.7919921875 5627.802734375 6287.00341796875 6058.30517578125 7003.22314453125 7023.9697265625 7023.9697265625 7159.154296875 7501.43505859375 6420.95556640625 6654.14990234375 7830.4794921875 7090.6630859375 4942.3154296875 4831.23291015625 4899.04541015625 6897.66650390625 8362.15234375 6547.2978515625 5231.16552734375 4766.54296875 4750.10205078125 4750.10205078125 6172.888671875 6947.7353515625 7087.6435546875 6817.0703125 6296.912109375 7217.27490234375 5847.5126953125 6700.40185546875 6656.65087890625 5485.091796875 5322.75390625 5136.5185546875 5655.66064453125 5787.888671875 5595.81005859375 5595.81005859375 5688.552734375 5947.7373046875 4624.05029296875 5172.5224609375 4963.3212890625 4701.9736328125 3856.204833984375 3696.63671875 4268.88037109375 4969.640625 4110.55810546875 3543.66259765625 3662.29833984375 4393.98193359375 4647.36328125 3743.265869140625 3743.265869140625 4129.375 3443.9501953125 3404.8740234375 4503.73876953125 5287.68798828125 5729.35546875 5193.849609375 5188.4755859375 4596.22509765625 4318.9716796875 5872.70947265625 4748.75537109375 5715.48828125 5588.8369140625 5530.76171875 5530.76171875 5154.32177734375 4149.14404296875 3841.014892578125 3884.568359375 2106.073486328125 1757.334716796875 1867.734619140625 1429.4140625 1370.5999755859375 1819.4320068359375 1680.0830078125 1998.15185546875 2128.01513671875 1937.2237548828125 1397.7548828125 1397.7548828125 1837.52587890625 3103.436279296875 3107.73779296875 3050.007080078125 3040.29248046875 993.67279052734375 628.800537109375 -35.520977020263671875 2051.306884765625 487.856842041015625 152.6217193603515625 943.226806640625 282.3792724609375 -181.605316162109375 840.35198974609375 840.35198974609375 1508.82275390625 2633.613525390625 921.01263427734375 -343.8302001953125 -316.387298583984375 641.3670654296875 1905.9464111328125 2139.561767578125 1718.4613037109375 1615.5045166015625 1483.439697265625 1034.31982421875 609.9127197265625 361.61273193359375 515.64013671875 321.64385986328125 321.64385986328125 262.47369384765625 1337.8343505859375 -386.927947998046875 -1470.1031494140625 2398.028564453125 1609.401123046875 770.551025390625 1127.932861328125 1179.962646484375 2265.59814453125 2451.37451171875 3007.723876953125 1300.8204345703125 1873.245361328125 1938.7576904296875 1938.7576904296875 2079.2197265625 2144.7646484375 2491.640869140625 1508.273193359375 2181.282958984375 1345.2469482421875 1024.2132568359375
7966.25390625 6305.99267578125 5021.013671875 4810.2041015625 4231.66455078125 6364.931640625 6045.8095703125 6045.8095703125 5738.4130859375 5602.92919921875 5395.81689453125 5977.3701171875 5287.55908203125 5679.25634765625 5773.13623046875 5620.7451171875 5577.64794921875 5620.666015625 5827.89013671875 5779.69140625 4469.97802734375 3805.7626953125 5752.60546875 6999.05078125 6999.05078125 7346.7763671875 7028.05517578125 5274.35009765625 4719.5556640625 5801.6162109375 7223.92626953125 4895.07958984375 4769.1455078125 4760.478515625 6265.630859375 7823.53466796875 6283.17822265625 4185.41162109375 3797.846435546875 3936.367431640625 3936.367431640625 4847.46337890625 5669.76416015625 7409.3203125 6723.04248046875 6194.041015625 6718.52099609375 5107.4208984375 5756.83349609375 6060.4443359375 5308.3486328125 5765.30322265625 5322.85693359375 5193.71484375 5487.2958984375 5277.39208984375 5277.39208984375 5363.37890625 5500.41748046875 5448.2607421875 4970.673828125 4704.08447265625 4484.83203125 4074.287353515625 3823.751953125 4145.5712890625 3630.55419921875 3895.357666015625 3259.81103515625 3374.280517578125 4103.32958984375 5126.98388671875 3551.850341796875 3551.850341796875 2982.233154296875 3546.31689453125 3718.2490234375 3775.146484375 4061.207763671875 4806.51171875 4028.579833984375 4001.373779296875 4246.31884765625 4164.98974609375 4917.0380859375 5053.953125 4844.29296875 5481.2236328125 5632.9873046875 5632.9873046875 5812.04638671875 4565.111328125 4517.1083984375 3796.86181640625 1721.1441650390625 1839.869140625 1596.9525146484375 1116.336181640625 337.880706787109375 805.575439453125 1700.05810546875 1089.2626953125 1762.761962890625 1660.1441650390625 1634.11181640625 1634.11181640625 2561.38916015625 2503.008544921875 3249.162841796875 3665.145263671875 2059.80419921875 1780.0687255859375 1613.954345703125 -221.9025115966796875 -131.1795501708984375 -72.10759735107421875 -468.2242431640625 -163.776641845703125 461.63592529296875 280.674041748046875 643.76275634765625 643.76275634765625 2850.57421875 1657.7720947265625 201.71142578125 -188.0915985107421875 -261.759857177734375 716.16552734375 1456.48193359375 2591.59765625 1977.802978515625 2145.035400390625 1619.2144775390625 1310.5477294921875 583.671875 483.8236083984375 567.95361328125 324.48028564453125 324.48028564453125 133.1074371337890625 739.63568115234375 316.4774169921875 -600.67340087890625 1178.1634521484375 805.40130615234375 998.5078125 911.98187255859375 1244.9266357421875 1683.382080078125 2472.58447265625 2801.64111328125 2444.133056640625 1186.263671875 1345.113037109375 1345.113037109375 1678.5128173828125 1263.8695068359375 1502.216796875 1938.5594482421875 2599.607177734375 2486.0771484375 1315.3729248046875
4024.97998046875 5945.177734375 6191.5546875 4538.03369140625 4326.8818359375 6293.79833984375 6108.794921875 6108.794921875 6096.86474609375 5655.3837890625 5215.41943359375 6219.818359375 5984.28857421875 5766.96044921875 4956.22802734375 5495.234375 4894.93994140625 5117.3916015625 5298.01611328125 6043.4267578125 4500.75341796875 3825.612548828125 5000.93994140625 7386.2216796875 7386.2216796875 6208.52685546875 4382.763671875 2901.727783203125 2910.529541015625 3416.829345703125 5856.46923828125 5745.66064453125 5160.7275390625 4928.73583984375 6639.57373046875 6684.76171875 5501.36376953125 4075.433837890625 3630.11572265625 3513.217041015625 3513.217041015625 3568.048828125 5093.31982421875 6172.90087890625 4694.03173828125 6796.29052734375 7761.78564453125 5638.60302734375 4509.45654296875 3356.921875 5396.087890625 5737.630859375 6419.66015625 5388.18603515625 5425.169921875 5556.63134765625 5556.63134765625 4780.76123046875 4910.20166015625 4909.87548828125 4883.1513671875 4968.46337890625 4622.7841796875 4985.3740234375 4858.91357421875 4943.623046875 3808.599853515625 4224.5146484375 4113.4609375 4035.478515625 4047.79833984375 3688.876708984375 4722.8662109375 4722.8662109375 2769.542724609375 3378.96484375 3861.140869140625 3624.61865234375 2749.103271484375 4045.365478515625 4465.8505859375 3385.36865234375 3588.064208984375 3445.028076171875 3865.716796875 4535.875 4778.31982421875 4841.62353515625 3549.439208984375 3549.439208984375 7162.77783203125 4921.6181640625 1841.3184814453125 1407.8096923828125 1448.0440673828125 1626.9813232421875 1293.7698974609375 2187.012451171875 1049.5711669921875 -115.48052978515625 657.4022216796875 1418.6490478515625 1415.95361328125 1613.314453125 2647.068603515625 2647.068603515625 1867.1163330078125 1945.97412109375 1933.4521484375 -13.560933113098144531 -524.88507080078125 -461.567047119140625 -439.61053466796875 218.0532684326171875 1127.97314453125 242.100830078125 -613.407958984375 -482.40692138671875 -620.46044921875 -614.27508544921875 -582.126708984375 -582.126708984375 -527.87493896484375 -521.476318359375 -306.81097412109375 354.78314208984375 517.4642333984375 428.677490234375 1420.3699951171875 1810.3380126953125 2506.080322265625 2092.73779296875 1596.042724609375 1544.6209716796875 883.81622314453125 678.91961669921875 516.78985595703125 309.44989013671875 309.44989013671875 344.70379638671875 194.0855560302734375 212.7761077880859375 2020.576171875 983.15948486328125 2651.3154296875 1988.17333984375 1549.6412353515625 1520.4713134765625 1448.0145263671875 1482.4852294921875 2308.805419921875 2619.37451171875 2146.21875 1738.6129150390625 1738.6129150390625 1735.59375 999.949951171875 1610.19140625 2840.153564453125 3546.20751953125 3313.538330078125 2765.078125
3671.031005859375 4984.19775390625 6904.244140625 6306.45703125 6002.509765625 6505.48876953125 5954.91796875 5954.91796875 4677.4091796875 4794.2041015625 5385.7470703125 4318.80517578125 5032.5634765625 5755.7626953125 5681.42578125 4959.6416015625 5711.2353515625 5530.244140625 5601.92431640625 5693.3984375 6432.66943359375 5740.359375 7060.86474609375 5289.89453125 5289.89453125 4567.8720703125 3458.7294921875 2304.528076171875 3289.57666015625 3356.123046875 6747.71630859375 8625.314453125 7667.5927734375 6612.982421875 7027.4140625 7118.94921875 5620.84130859375 4176.3388671875 4408.16162109375 3605.368408203125 3605.368408203125 3963.49072265625 5265.49560546875 7145.87353515625 7350.33251953125 7209.56494140625 6527.3994140625 5414.794921875 5221.31005859375 4896.33251953125 3234.024658203125 3314.158447265625 5384.9296875 5050.6376953125 5312.9267578125 4737.736328125 4737.736328125 4782.69677734375 5186.81591796875 4380.76123046875 4206.53955078125 4651.02685546875 4622.0166015625 5615.0615234375 5904.49755859375 4101.40966796875 3460.823974609375 3802.44384765625 4666.49609375 3616.06982421875 4702.33935546875 4484.1435546875 4276.755859375 4276.755859375 3885.167724609375 3747.226318359375 2060.017822265625 2251.4853515625 3012.3056640625 3024.695556640625 3571.0419921875 3893.50537109375 4260.03173828125 4065.336181640625 3483.605224609375 3450.516357421875 3494.434814453125 4833.5185546875 5815.46875 5815.46875 3531.772705078125 1894.958740234375 1434.665771484375 1574.3018798828125 1532.7664794921875 1310.6923828125 997.22222900390625 1087.000732421875 516.9930419921875 -105.7371978759765625 554.97650146484375 661.748291015625 1446.50146484375 743.35748291015625 1215.734130859375 1215.734130859375 358.091339111328125 -382.419036865234375 83.54514312744140625 329.712860107421875 267.113800048828125 706.78857421875 604.67156982421875 546.841552734375 735.3336181640625 867.6419677734375 619.68804931640625 960.30426025390625 758.451416015625 856.46923828125 561.8232421875 561.8232421875 1198.214599609375 795.45477294921875 108.1164703369140625 -128.7684173583984375 -141.4736328125 444.289031982421875 2386.80126953125 3315.0390625 2791.88232421875 710.0526123046875 319.880462646484375 1930.976806640625 1132.5697021484375 711.16802978515625 434.518524169921875 314.357269287109375 314.357269287109375 234.26544189453125 265.659637451171875 273.822723388671875 1373.0244140625 1683.172607421875 3225.397216796875 3309.25830078125 2082.9296875 1890.0667724609375 1627.785888671875 1312.0936279296875 1271.906494140625 2350.01318359375 1967.3712158203125 1968.282470703125 1968.282470703125 1328.662353515625 1762.710205078125 1941.45703125 2878.5341796875 3718.23046875 3946.73876953125 3181.73388671875
4510.46240234375 6621.85986328125 5756.27490234375 6045.41259765625 5720.65966796875 6004.77685546875 5976.3759765625 5976.3759765625 5495.6826171875 5601.384765625 5447.13330078125 4761.51611328125 4708.3154296875 5979.1484375 5692.44189453125 5529.123046875 5437.81201171875 5388.66748046875 5779.1064453125 5755.58203125 6481.5263671875 6602.953125 7212.56201171875 5484.57421875 5484.57421875 4787.97314453125 4912.5283203125 2350.921875 3559.886962890625 3732.227783203125 6978.75244140625 8322.5087890625 7075.5595703125 7144.43359375 6829.99072265625 6969.5517578125 5931.3349609375 4561.9931640625 4591.05859375 4057.075439453125 4057.075439453125 4465.9521484375 5637.4716796875 7521.68115234375 7869.12939453125 7645.8984375 7434.61474609375 6584.884765625 5985.11572265625 5802.5302734375 5307.32861328125 5001.90771484375 4936.66943359375 3972.78662109375 5231.966796875 3987.4873046875 3987.4873046875 4346.484375 5163.578125 3712.564697265625 3803.330322265625 4145.9619140625 3933.51708984375 5191.978515625 5136.21240234375 3917.69921875 3044.72998046875 3177.798828125 4475.21240234375 4656.45654296875 4718.58837890625 4853.81494140625 3864.703125 3864.703125 3928.28662109375 4281.23388671875 4052.53759765625 2974.2900390625 3227.06005859375 3393.17138671875 3666.751953125 4123.4658203125 3862.18994140625 3236.80029296875 3451.2900390625 3380.166748046875 3731.73388671875 4799.50634765625 5815.96533203125 5815.96533203125 2337.094970703125 1703.6219482421875 1706.0311279296875 1813.0921630859375 1454.383056640625 1456.4700927734375 1307.3525390625 999.882568359375 -157.9780426025390625 244.331512451171875 913.19073486328125 1246.4676513671875 1697.3819580078125 1436.85302734375 290.021240234375 290.021240234375 199.80584716796875 1386.7791748046875 1506.0526123046875 1885.0968017578125 1102.4473876953125 1304.9676513671875 1947.1597900390625 1390.8399658203125 1167.5684814453125 993.578369140625 1483.1722412109375 957.129150390625 944.69293212890625 1081.8868408203125 1351.8204345703125 1351.8204345703125 1190.0191650390625 1091.683349609375 1197.364990234375 600.961181640625 -136.0614166259765625 -139.6979522705078125 117.12081146240234375 966.7342529296875 1874.354736328125 788.93463134765625 223.5701141357421875 2825.294189453125 2199.24755859375 878.759765625 505.923583984375 417.6158447265625 417.6158447265625 251.7329864501953125 236.0754852294921875 202.349884033203125 2087.592529296875 2389.247802734375 2153.97998046875 3126.404052734375 2868.08447265625 2438.906982421875 2169.512939453125 1636.57861328125 1725.2178955078125 1670.9315185546875 1990.785400390625 1766.017822265625 1766.017822265625 1101.8070068359375 1599.031494140625 1974.281005859375 2508.6318359375 3115.04248046875 3432.171630859375 2323.162353515625
6815.08447265625 5854.5615234375 5728.07470703125 5875.55224609375 5454.7294921875 5798.322265625 5833.5634765625 5833.5634765625 5511.82275390625 5659.68896484375 5653.189453125 6052.55126953125 5790.5009765625 5871.5341796875 5976.953125 6034.19384765625 6110.4013671875 5697.2158203125 6293.1357421875 6022.1162109375 5969.1591796875 6354.3056640625 6732.28076171875 4809.708984375 4809.708984375 4141.00341796875 4278.9130859375 4467.11181640625 4757.384765625 5009.7412109375 5530.3916015625 7249.578125 6969.33251953125 6592.09765625 6394.3359375 6650.29833984375 7445.1806640625 7007.35205078125 5051.4091796875 4979.685546875 4979.685546875 6840.064453125 7375.85498046875 7304.82421875 7477.5634765625 6015.9013671875 4180.0556640625 3288.83935546875 3982.286865234375 5346.8662109375 6662.98779296875 6989.5361328125 5630.275390625 4797.8115234375 5377.46044921875 4347.36376953125 4347.36376953125 5203.48828125 4784.53857421875 4929.9072265625 4752.45703125 4887.345703125 5156.19873046875 3079.712158203125 2631.04296875 2100.550537109375 2000.59326171875 1702.7393798828125 3965.619140625 5373.57470703125 4742.5751953125 4752.84228515625 3372.0205078125 3372.0205078125 3312.915283203125 3508.549072265625 4055.940185546875 1592.4329833984375 3730.11328125 3592.862060546875 3685.78125 3572.677978515625 3191.044189453125 3100.853271484375 3163.540771484375 3375.971435546875 3716.6083984375 3569.6103515625 3487.816162109375 3487.816162109375 2747.38916015625 2196.8740234375 2223.14306640625 2060.76513671875 1869.5875244140625 1996.8167724609375 2248.955810546875 3875.247802734375 1010.67364501953125 974.8475341796875 1659.473876953125 1874.216552734375 2591.17626953125 1478.80810546875 1524.1456298828125 1524.1456298828125 1835.33251953125 3610.9150390625 3395.15380859375 3268.06396484375 2633.5654296875 3061.8427734375 1953.8406982421875 3980.721923828125 2866.287109375 1514.36669921875 2262.08984375 1475.2730712890625 1458.3504638671875 1473.235107421875 1661.6033935546875 1661.6033935546875 1601.88134765625 1210.755615234375 1080.4412841796875 1012.66363525390625 509.9290771484375 -37.066837310791015625 -74.55068206787109375 20.945650100708007812 739.5675048828125 707.23052978515625 370.021697998046875 2940.2001953125 1593.7139892578125 1258.6888427734375 675.14556884765625 482.57574462890625 482.57574462890625 433.912506103515625 347.59686279296875 197.182220458984375 1966.7425537109375 1539.65087890625 1322.9686279296875 1789.969970703125 2561.1767578125 3702.871337890625 3749.313232421875 2425.666259765625 2154.888916015625 2229.012451171875 2500.36669921875 2544.689697265625 2544.689697265625 1709.383056640625 2001.0970458984375 2591.424072265625 2444.795166015625 2446.357421875 2212.532958984375 2120.312744140625
6518.21435546875 4821.22607421875 5177.0673828125 5111.34326171875 5001.88232421875 5214.86474609375 5328.34033203125 5328.34033203125 5090.74267578125 4588.25537109375 4565.1162109375 3933.93798828125 5954.86328125 5918.10107421875 6318.2060546875 6613.5390625 6459.51513671875 5766.60498046875 5577.04736328125 6314.3076171875 6633.123046875 5717.41064453125 6258.7353515625 5532.330078125 5532.330078125 4595.5029296875 3821.31884765625 3544.64990234375 3850.441650390625 4273.5048828125 5754.5556640625 7229.35205078125 6316.35986328125 6069.0751953125 5892.8828125 5681.8310546875 7216.001953125 5705.7509765625 4338.2724609375 4065.305908203125 4065.305908203125 7230.267578125 6531.22021484375 7857.05908203125 6143.162109375 4936.4306640625 3195.108154296875 2437.1220703125 2459.193115234375 3675.285888671875 6393.697265625 5413.47314453125 6821.58837890625 5987.1494140625 5845.1962890625 5385.75634765625 5385.75634765625 6007.50048828125 5450.59423828125 6089.10009765625 5379.3095703125 4870.4716796875 4971.75048828125 3840.69677734375 2100.350341796875 2257.385498046875 1534.129150390625 1738.3262939453125 3203.015869140625 3624.4013671875 4019.733154296875 4754.0283203125 4272.54248046875 4272.54248046875 3581.240234375 4280.0166015625 5468.96533203125 4683.50634765625 3298.3056640625 3932.56787109375 3726.727294921875 3490.8818359375 3227.2333984375 3089.56494140625 2908.686767578125 4153.361328125 4206.05908203125 2304.10107421875 2594.716064453125 2594.716064453125 2264.81787109375 2341.440185546875 2692.74755859375 3456.85205078125 2277.7412109375 1592.307373046875 833.33367919921875 -25.963827133178710938 1095.3021240234375 1084.640869140625 2002.0902099609375 1269.673583984375 2289.299072265625 2498.88720703125 2931.6103515625 2931.6103515625 3296.480712890625 4445.328125 3878.685791015625 3263.719482421875 3502.97998046875 849.230712890625 1108.8245849609375 1249.8319091796875 1839.6429443359375 1807.7193603515625 2795.950439453125 1502.9862060546875 1249.446533203125 1360.092041015625 1254.493896484375 1254.493896484375 1407.1439208984375 1341.4525146484375 902.158935546875 705.02191162109375 764.49676513671875 1026.0909423828125 569.55426025390625 1539.7899169921875 888.31060791015625 524.31170654296875 824.58209228515625 1793.85791015625 1800.4111328125 2284.200439453125 1979.1707763671875 778.74755859375 778.74755859375 530.34442138671875 475.817901611328125 429.07098388671875 302.8289794921875 371.83953857421875 1146.5032958984375 771.880615234375 1621.93701171875 1414.0953369140625 3543.483154296875 3311.9208984375 2293.6982421875 2660.70458984375 3057.696533203125 2415.606689453125 2415.606689453125 1984.779052734375 2512.31982421875 2565.264892578125 2793.48828125 2236.995361328125 1024.948974609375 881.5335693359375
