ncols        684
nrows        31
xllcorner    -18863575.2812
yllcorner    -3961686.07721
cellsize     49571.713253532158
1732 1748 1634 1215 1350 1350 1580 1455 1275 966 992 1427 1629 1734 1728 1299 1327 1355 1403 1416 1440 1440 1125 661 286 916 949 1126 1186 1125 1067 1120 1105 1078 1016 991 974 992 992 1117 985 980 938 874 887 812 889 706 597 501 568 658 703 651 651 724 1008 911 857 797 655 581 867 582 651 683 680 840 960 1027 1027 680 574 537 631 605 505 401 441 641 840 859 787 715 701 625 617 617 633 646 601 596 612 761 914 913 1101 1008 1024 992 635 850 1040 1040 1092 1349 1514 1562 1059 881 1191 1195 1027 859 779 803 804 773 750 750 802 906 949 1163 862 801 650 590 673 947 1090 934 962 840 652 454 454 414 676 976 1085 1118 1709 2222 2319 2493 2325 2088 2036 1953 1940 1987 1987 1499 852 777 922 987 980 1127 1519 1604 1700 1867 1273 1194 1904 831 831 1029 1025 1345 1686 1439 1279 1250 1086 1811 1520 1556 1456 1869 1439 1211 1211 1151 1162 1239 1525 1173 1157 1183 1149 1113 1162 1171 1289 1316 1029 959 892 892 943 1064 996 742 769 804 836 946 1096 1115 1046 944 794 1077 872 872 1017 1106 1135 1155 1103 1097 864 857 1105 1193 1153 1146 1080 774 795 795 768 768 733 665 986 1279 961 1017 841 607 588 600 500 466 496 538 538 881 441 469 546 663 483 379 349 411 435 467 515 555 562 860 860 784 584 465 600 703 699 753 669 571 405 837 673 625 412 440 440 500 373 423 533 595 581 693 668 628 707 852 848 862 1262 1057 1245 1245 1580 1496 1698 1766 1911 1510 1454 1697 1420 1253 1234 1021 936 1015 888 888 777 652 672 569 620 529 513 554 665 660 659 814 857 910 841 841 719 684 796 595 574 659 868 935 1023 791 808 528 553 459 421 421 430 299 291 468 561 609 653 301 327 368 419 286 400 920 -82 -3 -3 427 45 115 130 127 97 120 382 778 512 1000 2350 3000 1997 622 622 1080 1174 1300 1583 1691 1392 1553 2067 1868 1726 1460 913 1864 1107 609 609 634 700 820 862 296 352 295 293 293 266 345 371 498 473 295 220 220 310 469 434 309 358 365 358 319 339 395 352 368 335 346 273 273 351 321 319 307 373 554 606 511 530 529 542 685 742 705 570 570 542 664 698 779 792 849 846 866 834 829 1008 1409 1148 1057 1025 1007 1007 1118 1202 1238 1287 1289 1357 1234 1329 1285 1144 1147 1008 1020 1140 1385 1385 1403 1296 1186 1065 944 773 846 797 882 974 977 804 880 885 891 891 984 794 831 1114 810 682 410 566 450 763 662 480 397 403 230 230 278 298 390 362 434 870 590 337 254 87 -27 19 187 293 331 255 255 197 372 486 410 534 757 598 555 238 365 395 456 734 822 1423 1423 336 193 174 145 138 138 106 56 80 164 195 169 445 219 409 409 269 237 247 333 347 363 320 279 317 377 268 400 372 502 633 558 558 653 653 746 702 842 835 813 816 781 646 828 1058 1268 1636 1608 1608 1505 1333 1439 1183 1566 1789 1124 1263 763 1349 1878 1685 2199 1837 1791 1791 1784 1673 1632 2110 1913 1982 1961 1967 2299 2041 1873 1771 1852 1956 1925 1828 1828 1905 2079 1897 2757 2370 2344 2375 2070 2493 2884 2807 2697 2874 3111 3201 3201 330 192 680 1126 2105 1219 1084 2016 2137 2482 2478 2422 2214 1927 1852 1852 1974 2509 2512 3059 2679 2252 2279 3311 3614 4657 4707 -845 979 1883 1692 1692 2039 2170 2216 2351 2293 1870 2130 1797 1613 1612
1114 1240 1693 1838 1693 1693 1859 2120 2064 1154 1261 1382 1534 1562 1614 1249 1565 1320 1599 1411 1202 1202 935 672 709 910 1001 1219 1299 1135 1036 1109 1055 1088 1059 995 999 988 988 953 993 994 949 912 923 976 981 821 810 694 574 647 647 649 649 779 816 765 785 799 685 561 543 475 563 656 666 726 783 789 789 682 539 506 657 527 369 362 485 634 920 1153 843 747 663 587 518 518 493 543 569 581 629 711 794 746 1007 728 946 1119 774 600 800 800 1038 1355 1633 1569 1110 949 1044 1109 1024 819 746 864 768 798 687 687 784 867 768 1006 615 552 660 662 804 1120 1189 934 802 741 773 856 856 750 665 815 987 1368 1812 2160 2264 2379 2395 2240 2077 1949 2084 2019 2019 1619 1015 833 935 916 983 1019 1186 1340 1477 1598 1638 1785 1729 1580 1580 1261 789 985 1276 1340 1414 1487 1144 1171 1486 1202 1607 1687 1539 1066 1066 1021 975 1329 1313 1506 1380 1234 1368 1436 1437 1358 1272 1184 1027 967 904 904 1071 1052 897 692 672 901 1064 996 966 1110 1028 906 805 841 945 945 1037 1076 1031 924 896 817 626 742 801 1051 1025 1024 934 748 763 763 835 953 663 741 759 1392 1648 1252 937 973 801 618 617 767 896 759 759 736 472 421 689 990 705 576 456 434 431 440 450 529 598 551 551 490 368 491 703 911 972 824 659 527 491 603 599 432 490 455 455 498 477 506 547 577 557 571 546 579 653 786 800 823 944 1122 1219 1219 1473 1773 2167 2163 2432 1948 1325 1353 1364 1273 1210 1040 974 963 878 878 878 708 736 893 1063 578 598 640 690 683 788 960 839 800 594 594 646 550 591 562 564 659 592 667 976 853 792 550 426 544 664 664 731 307 295 549 567 610 684 449 373 278 381 430 515 415 -380 616 616 538 363 184 161 67 12 41 386 122 201 573 1539 2268 2399 2681 2681 2347 2289 2462 1945 1532 1483 2017 1404 912 1560 1992 1031 974 1594 843 843 657 714 957 893 251 436 384 437 340 309 446 547 498 341 257 284 284 405 508 431 320 374 452 437 384 407 446 370 314 317 297 275 275 280 291 346 334 486 542 680 560 516 524 618 751 639 815 712 712 616 736 773 816 813 772 789 820 857 950 1265 1159 1136 1187 1012 1028 1028 1378 1355 1173 1069 1152 1270 1387 1400 1208 1236 1188 1057 1128 1201 1411 1411 1365 1202 1216 1086 932 831 841 871 774 927 815 736 830 891 974 974 906 961 866 1070 981 519 550 681 662 806 661 473 381 244 252 252 177 470 666 468 464 761 1259 1324 1322 132 178 -73 279 159 30 55 55 106 111 331 351 -367 313 93 -271 130 429 526 642 734 1456 1105 1105 467 280 222 177 178 183 115 46 145 79 150 274 339 439 402 402 243 242 233 330 339 323 367 423 442 451 452 364 424 682 938 817 817 849 791 761 1006 1040 1119 925 903 895 851 1075 1050 1201 1418 1498 1498 1428 1374 1585 1598 710 1962 1563 1427 1207 1398 1262 1340 1973 1711 1698 1698 1503 1425 1986 1917 1975 1969 1890 1948 2016 2151 1827 1986 1630 1834 1876 1996 1996 1993 1985 1882 2498 2395 2296 1698 2786 2499 2593 2648 2573 2426 2230 2375 2375 644 1024 1927 2554 2383 1442 724 926 1845 1682 1838 2125 1885 1380 737 737 418 768 133 -122 3270 2170 1994 2414 2681 3064 4503 5174 1220 -69 1224 1224 1592 2010 2305 2528 2358 2223 2481 1712 1662 1610
1099 1041 1748 2086 2070 2070 1826 1756 1982 1275 1287 1347 1450 1492 1577 1397 1158 1312 1596 1248 1368 1368 1245 1265 999 1051 1116 1264 1228 1521 948 928 1028 991 1084 1076 1093 1081 1081 1060 1075 1012 981 922 963 1092 1255 1057 1076 967 722 651 721 770 770 653 611 655 712 770 699 424 34 160 484 611 642 649 664 647 647 546 468 495 440 435 346 423 537 668 869 953 814 861 726 838 651 651 422 439 500 607 663 600 653 895 1036 813 855 855 677 638 1135 1135 1152 1619 1489 1411 1295 1045 1032 1181 1146 778 647 719 1113 1009 905 905 957 863 806 747 783 769 709 841 1007 1155 1154 940 673 598 608 686 686 577 622 693 937 1008 1689 1898 2027 2197 2256 2199 1944 2011 1859 1557 1557 1545 1030 870 1022 990 960 917 997 947 1037 1342 1544 1723 2015 2212 2212 1787 976 1166 1246 1396 1535 1621 1678 1791 1637 693 883 1311 1207 811 811 851 776 538 1172 1340 1251 1213 1230 1099 1089 1046 1091 1094 999 920 1010 1010 1095 831 787 698 806 905 1148 1014 1004 1103 1040 1019 938 977 1027 1027 1025 937 859 687 693 840 667 671 764 781 872 942 1020 1225 1050 1050 975 643 518 724 783 909 1180 1059 962 737 281 550 600 677 690 684 684 788 957 884 704 965 917 983 870 503 447 456 456 483 549 495 495 489 641 756 812 614 737 903 732 555 550 507 491 442 614 465 465 560 629 595 561 602 820 502 417 389 489 664 698 689 919 1020 1149 1149 1470 2043 2424 2482 1902 1597 1236 1101 1088 1112 1176 1032 1018 886 911 911 758 713 823 1051 847 586 593 685 733 703 803 826 879 928 559 559 765 639 567 595 545 496 469 538 826 1171 944 907 925 958 874 874 354 214 240 465 449 492 639 191 136 198 369 402 585 714 101 781 781 695 527 534 329 157 68 22 18 57 128 429 1828 808 1358 2285 2285 2482 1968 1581 1628 1718 1608 1581 909 397 1607 1264 892 1171 882 641 641 664 1447 2155 1375 695 444 560 505 425 548 678 517 451 378 356 453 453 480 524 440 388 470 541 543 503 450 380 374 341 362 316 306 306 305 316 351 435 650 601 534 722 665 684 818 931 856 820 976 976 840 839 871 850 803 779 799 841 1046 1015 1248 1243 1091 1102 1033 1058 1058 1346 1474 1225 1222 1488 1423 1318 1258 1264 1220 1245 1242 1125 1250 1336 1336 1376 1268 1247 1192 933 803 806 894 877 858 779 764 858 913 914 914 814 682 758 783 815 831 769 746 635 602 800 581 538 363 413 413 262 1198 673 1286 718 285 270 399 418 43 472 103 32 -65 -42 41 41 8 -220 -12 -165 452 490 441 270 -2 482 1167 932 827 735 407 407 283 184 183 184 202 176 116 215 68 -61 -162 200 174 284 667 667 477 509 452 290 415 465 455 449 434 455 540 396 512 1070 560 512 512 690 785 979 1233 1270 1246 1172 992 1001 994 1106 1520 1415 1268 1341 1341 1344 1415 1276 1633 1879 1740 1280 1310 1300 1442 1583 1756 1466 1423 1365 1365 1388 1353 1862 2551 2115 2096 2016 1831 1687 1819 1769 1760 1819 1962 1532 1454 1454 1733 1850 2025 2070 2263 2370 2767 2734 2250 2828 2562 2107 2086 2110 2004 2004 2860 2263 2236 2288 2375 2369 1920 1261 1195 1161 732 1696 1593 1774 2002 2002 1850 2179 2674 2785 2675 2899 2290 1916 2635 2214 2603 3174 4401 3702 -607 -607 -130 946 2522 2811 2473 2159 2194 1932 1959 1726
989 1387 1189 1494 780 780 1094 1586 1269 1298 1301 1304 1329 1303 1289 1269 861 1583 1218 1292 1201 1201 1274 763 1052 1202 1403 1311 1154 957 1002 1390 1106 1066 1047 1104 1169 1227 1227 1198 1088 1054 990 938 981 1189 1501 1306 1098 993 825 689 621 713 713 640 623 635 747 836 732 507 294 254 478 467 575 597 574 515 515 361 333 370 393 356 336 418 547 657 816 1099 897 797 689 642 545 545 398 452 498 603 613 594 668 889 1143 949 961 950 691 856 1092 1092 1338 1222 1274 1385 1372 1428 1135 1136 1087 915 722 528 683 782 870 870 776 746 746 736 743 741 797 922 1190 1367 1088 872 679 595 529 645 645 576 532 691 1051 1142 1099 1080 1118 1227 1519 1686 1568 1211 1281 1183 1183 1272 1084 1052 1102 1086 1019 1037 1022 1103 1123 1120 1337 1558 1801 1996 1996 2043 1851 1713 1849 1811 1843 1847 1819 1763 1576 1387 1075 1261 1087 953 953 1061 1003 715 749 1168 1100 1052 1005 945 844 937 919 965 905 864 844 844 960 777 734 662 719 1221 1225 1180 1212 1185 1123 1129 1082 1074 1082 1082 964 825 735 685 742 961 743 684 708 732 790 906 889 912 751 751 866 831 828 673 756 944 838 1285 1205 1079 764 561 648 661 648 664 664 709 720 794 934 703 804 891 568 584 510 536 518 553 536 619 619 565 594 852 564 569 608 620 844 586 561 465 451 496 501 557 557 596 737 568 532 577 617 640 360 375 474 511 593 643 1055 1181 1074 1074 1513 1828 2028 2117 1699 1371 1057 977 1047 1201 1115 1054 1009 908 803 803 731 633 903 1132 756 630 735 892 732 800 793 611 784 583 639 639 898 977 788 591 844 497 661 500 574 781 1216 1070 1107 684 680 680 580 314 237 309 435 441 420 281 247 280 379 487 528 779 232 14 14 770 534 411 310 400 319 319 8 8 85 1649 1537 1825 1301 2295 2295 2067 3143 2639 2267 608 1243 1506 1613 1565 1478 898 979 1637 754 696 696 1101 1553 1719 963 482 706 700 647 368 1071 681 615 496 502 484 610 610 632 660 623 635 661 591 548 440 424 402 389 338 362 357 347 347 345 334 374 444 514 516 511 1054 882 901 966 888 1003 1026 1178 1178 1211 1074 1096 1059 975 914 853 923 1016 988 1069 1196 1143 1111 1167 1248 1248 1267 1468 1335 1373 1287 1329 1418 1414 1437 1299 1313 1213 1387 1453 1461 1461 1380 1188 1121 1016 891 865 1027 913 924 975 921 857 885 832 769 769 723 754 768 740 672 736 548 712 540 500 476 523 665 541 601 601 386 998 1164 1657 1015 455 341 437 488 271 188 89 -7 -42 -19 -170 -170 -253 -78 49 -39 112 11 -137 -285 150 743 289 867 477 306 403 403 406 262 224 194 149 67 114 42 58 -381 -248 -443 -215 355 500 500 935 420 415 391 414 463 505 594 435 473 513 425 435 554 531 450 450 762 648 752 1247 1320 1049 1092 1048 1111 1143 1215 1501 1478 1393 1383 1383 1382 1485 1544 1768 1908 974 946 2397 1565 1858 2052 1776 1541 1440 1243 1243 1365 1339 1439 1479 1899 1874 1929 1925 1904 1843 1753 1527 1546 1783 1880 1882 1882 1853 1850 1762 2024 1969 2223 2355 1712 2502 2726 2160 1913 2033 1962 1945 1945 1958 1952 1986 2020 2175 2330 2475 2524 2495 2252 1472 1150 1817 2147 -322 -322 1368 1942 2283 1998 1945 2544 1011 1336 1625 2389 2644 1438 2792 3830 3527 3527 5668 3089 1798 2386 2070 2096 2040 2497 1934 1827
1240 1575 1000 1208 1199 1199 1482 1088 1011 1245 1230 1314 1511 1147 1099 1176 890 1164 1062 603 902 902 1168 793 977 1062 1133 1023 1052 1206 980 1107 1138 1248 1177 1126 1211 1279 1279 1243 1155 1068 1003 923 981 1189 1347 1216 1177 1022 829 669 596 684 684 690 650 613 711 768 698 557 669 727 559 426 464 571 555 439 439 905 394 345 303 326 384 483 606 680 729 767 746 823 731 625 585 585 520 564 593 604 595 602 612 942 1083 1161 1044 951 791 901 1191 1191 1191 1110 1242 1363 1444 1198 1204 1231 1073 932 893 648 582 580 594 594 447 465 520 673 754 889 1021 1200 1414 1205 964 817 678 567 539 613 613 492 519 498 1139 1361 1001 1292 1097 1127 1065 1052 1062 890 675 939 939 1000 945 1025 1058 1127 1096 1037 1095 1136 1122 1123 1256 1479 1673 1728 1728 1741 1465 1932 2235 2154 2147 2025 1919 1786 1717 1635 1653 1625 1488 1159 1159 943 933 833 1048 1222 1101 928 934 908 709 789 825 811 796 801 738 738 829 919 828 929 1170 1313 1283 1305 1392 1269 1226 1208 1128 1107 1078 1078 967 727 699 843 773 681 671 703 689 708 719 672 701 854 719 719 845 1050 720 689 702 726 760 799 917 675 594 727 787 773 630 659 659 715 881 976 1068 858 654 625 589 578 550 596 642 767 623 662 662 766 627 885 430 494 609 638 758 736 812 581 580 439 364 473 473 512 424 572 451 414 339 396 408 396 644 581 515 609 663 829 1049 1049 1316 1614 1677 1850 1772 1470 1061 1022 1028 1351 1154 1067 1015 930 793 793 652 745 812 824 633 640 760 840 753 1056 1009 961 679 757 730 730 799 887 876 1080 807 717 691 712 678 903 1014 1269 900 619 740 740 662 489 592 610 568 429 435 401 318 335 388 482 558 608 488 395 395 452 485 448 203 391 193 267 291 -28 58 1572 1469 2192 2485 2100 2100 2222 3125 1999 1672 652 1801 1712 1251 1327 1506 1814 1743 1666 524 708 708 1092 1741 1215 777 563 768 820 730 677 609 630 658 586 633 649 723 723 759 794 770 744 740 667 579 475 462 410 393 367 389 389 367 367 351 381 414 482 521 538 687 923 962 552 428 332 986 1049 1034 1034 893 1133 1239 1319 1147 1041 734 833 942 1018 1060 1280 1234 1127 1220 1223 1223 1183 1217 1338 1311 1320 1407 1449 1417 1310 1255 1357 1383 1412 1401 1362 1362 1257 1140 964 889 902 951 1025 1045 992 912 1027 978 862 781 732 732 708 818 836 703 659 712 695 580 580 528 423 383 549 470 740 740 479 696 1029 1942 1453 514 478 381 933 430 210 121 107 34 14 -71 -71 -56 47 68 -102 -135 -22 39 160 282 135 307 802 244 188 342 342 312 291 176 187 119 76 -70 -62 -63 -206 270 143 -218 140 503 503 546 356 424 653 437 497 508 492 552 580 546 520 443 457 486 605 605 674 986 1089 890 923 1066 1140 1096 1153 1233 1317 1435 1628 1556 1572 1572 1467 1506 1783 1729 1732 1702 1493 1706 1442 1201 1527 1317 2266 2641 1927 1927 1748 2009 1413 1405 1479 1609 1760 1783 1725 1699 1599 1542 1708 1794 1867 1885 1885 1877 2154 2074 1767 2180 2702 134 1935 2547 2349 1756 1568 1725 1855 1870 1870 1822 1829 1865 1928 2015 2167 2177 2013 2119 1998 2297 2466 2198 2313 1833 1833 2458 3031 1118 1476 1877 1776 2491 467 1630 1566 1288 828 1807 3029 3118 3118 2171 1730 1293 2113 2329 2373 2221 2035 2212 1982
1868 1368 1402 1441 1335 1335 1221 1148 1215 1025 1157 1309 1450 1487 1409 1063 961 1242 713 88 272 272 755 994 1004 950 830 759 776 926 888 763 861 931 997 1054 1249 1283 1283 1211 1219 1224 1126 967 975 1034 985 977 960 851 760 696 734 786 786 685 626 578 618 669 692 698 695 209 299 643 465 545 599 602 602 652 323 243 250 358 430 531 696 747 826 932 959 694 629 626 678 678 674 700 707 689 678 670 938 1100 1114 943 946 1008 1126 954 931 931 1005 968 1199 1407 1305 1191 1149 1199 1098 899 946 890 599 440 378 378 322 318 500 656 843 1080 1349 1505 1043 826 791 745 663 684 598 609 609 532 573 653 1103 1237 1245 1127 1007 791 759 857 772 716 749 826 826 844 826 919 1050 1128 1202 1134 1003 1054 1093 1174 1260 1414 1581 1581 1581 1568 1808 1007 1401 1987 1896 2112 1887 1761 1656 1626 1740 1812 1709 1792 1792 1394 1105 986 919 1176 1055 955 972 1132 1190 1115 1006 739 747 809 796 796 858 964 1090 1438 1385 1332 1340 1502 1569 1497 1553 1404 1210 1133 1046 1046 842 835 793 944 1053 760 720 676 708 718 590 652 766 854 800 800 797 982 860 786 775 735 751 746 706 621 599 1437 1411 694 688 755 755 776 760 831 783 1015 837 885 1168 989 736 695 783 1115 854 852 852 770 637 744 517 507 698 697 698 658 583 644 746 760 453 328 328 373 298 405 171 201 275 783 351 437 471 498 535 556 554 717 954 954 1314 1702 1753 1702 1758 1291 1300 1263 1056 1083 1062 997 948 943 887 887 689 833 896 539 603 640 698 783 968 1468 1197 980 831 817 879 879 523 1185 867 1286 1016 456 830 983 884 935 977 1031 815 539 470 470 319 494 689 423 328 298 323 589 444 358 388 467 485 453 323 1033 1033 289 -189 539 861 486 188 336 303 124 451 977 2234 2624 3114 1652 1652 1137 1274 1317 1438 1338 1373 1068 1205 1159 1491 1437 1521 911 1392 1452 1452 771 922 583 487 591 743 577 585 588 600 703 696 684 743 702 763 763 781 805 808 848 706 646 612 555 533 440 436 412 427 429 432 432 466 460 504 588 658 737 801 825 734 494 457 668 812 807 898 898 666 202 896 1183 1208 942 932 1096 1098 1033 1166 1257 1392 1362 1357 1388 1388 1373 1341 1360 1350 1325 1449 1410 1345 1351 1377 1402 1328 1309 1341 1278 1278 1166 1093 1022 977 1008 987 1254 1405 1047 691 784 601 712 703 660 660 631 621 609 562 569 585 565 584 507 478 405 242 249 171 259 259 262 163 836 1275 1378 602 337 315 249 360 232 143 68 11 -96 -80 -80 -32 83 95 70 52 159 143 106 59 82 175 158 126 132 123 123 802 343 117 286 111 172 241 123 20 -143 34 -206 -250 231 369 369 625 835 953 974 690 444 529 480 562 638 672 588 517 499 542 541 541 551 607 822 1048 1040 998 1100 1209 1362 1426 1386 1489 1572 1898 2005 2005 1901 1746 1607 1857 1799 1762 2129 2086 2657 2433 1856 1824 2044 1393 1458 1458 1687 1200 1366 1513 1318 1628 1681 1702 1633 1661 1785 1842 1960 2014 2053 2298 2298 2060 2775 2100 2201 2645 2352 1943 2311 2351 1775 1569 1578 1627 1680 1697 1697 1751 1743 1790 1827 1927 2057 2089 1992 2034 1973 2041 2401 2243 2207 1564 1564 2317 2312 2155 1780 832 1368 1530 1468 1616 1336 1262 1598 1463 1099 1741 1741 2082 2733 1175 1231 2437 2352 2077 2127 2093 1999
1349 1337 1237 1107 909 909 1044 1113 905 963 1108 1562 1790 1679 1581 1034 1025 1107 1082 769 232 232 672 1144 1115 1043 513 766 489 724 775 768 789 795 726 946 1082 1092 1092 1113 1168 1196 1160 1037 952 866 808 888 898 778 671 662 796 894 894 756 693 583 456 423 503 788 920 487 276 562 397 525 674 750 750 666 521 314 312 439 549 615 745 855 752 846 878 1080 772 968 894 894 766 741 771 728 745 775 1017 1095 1041 1314 1262 1085 1192 1066 1335 1335 1293 994 1380 1260 1371 1123 1140 1219 1278 1034 1278 1107 844 593 900 900 836 709 715 874 876 948 977 1201 892 714 675 681 668 668 607 584 584 697 567 552 602 617 580 579 619 716 799 738 729 752 764 790 790 783 779 832 944 1017 1100 1172 1138 1146 1161 1230 1373 1459 1628 1662 1662 1376 1919 1933 1571 748 1161 816 904 1173 1288 1191 1287 1462 1529 1621 1621 1277 1457 1597 1394 1279 1189 1007 1171 1506 1573 1577 1482 929 867 939 998 998 1068 1282 1358 1441 1321 1405 1560 1740 1892 2185 2047 1883 1401 1126 977 977 718 900 951 962 921 978 910 816 803 941 710 653 800 811 825 825 823 836 830 826 795 836 824 758 688 607 578 489 514 639 710 718 718 732 692 672 708 688 739 634 663 727 729 740 788 1299 1181 942 942 798 762 736 560 741 781 869 702 552 514 670 717 818 708 455 455 351 209 208 250 219 255 203 429 464 548 539 574 604 559 669 986 986 1197 1549 1729 1619 1137 1230 1180 1443 1257 1102 954 1167 1331 1090 958 958 774 822 655 677 709 811 860 859 1026 1513 1058 964 944 926 924 924 1078 1295 1073 1256 1096 874 1002 671 789 934 689 868 802 405 370 370 288 294 291 180 123 258 395 54 587 329 385 427 501 488 510 420 420 444 425 290 451 390 411 280 960 343 373 832 1763 1869 2506 2305 2305 1741 2046 2055 2615 1998 1751 1254 1487 1598 961 1489 1449 987 814 2876 2876 2163 1841 1769 650 771 764 670 706 663 607 692 765 684 753 712 778 778 899 855 894 845 805 668 542 584 589 561 598 509 499 553 535 535 541 621 734 626 464 530 674 728 634 548 577 626 723 853 1189 1189 947 942 1571 590 1512 1316 1250 1258 1354 1446 1344 1204 1126 1187 1316 1286 1286 1399 1707 1817 1521 1556 1438 1389 1320 1354 1276 1301 1318 1315 1325 1263 1263 1213 1181 1401 1225 1116 1001 1335 502 557 488 584 660 590 656 673 673 591 531 504 592 640 665 786 707 565 517 548 556 576 497 643 643 443 642 623 1001 763 458 284 251 516 393 352 220 73 20 -52 -15 -15 39 80 -14 -18 44 100 105 74 133 165 200 141 145 160 239 239 326 576 268 449 625 525 205 175 129 214 11 -29 273 264 472 472 702 745 809 342 77 90 205 419 546 579 707 638 588 597 609 598 598 625 712 828 1041 819 888 1054 1164 1356 1302 1309 1207 1453 1763 1086 1086 1972 1920 1887 2176 1862 1826 2025 1895 1861 2153 1997 1809 1744 1949 2195 2195 2231 2174 1939 1690 2080 1568 1598 1623 1842 2029 2074 2136 2209 2454 2637 1910 1910 2646 2641 2608 2272 2521 1891 1803 2034 1870 1642 1598 1638 1627 1639 1770 1770 1684 1612 1732 1800 1889 1922 1871 1936 1892 1867 1996 1969 2105 2018 1451 1451 2007 2152 1588 1264 495 1291 1295 1128 925 1923 1605 426 999 1591 1265 1265 1819 2248 2880 -773 1376 1718 2031 2246 2210 1938
960 1262 1435 1272 1058 1058 968 919 1011 1243 1352 1239 1320 1302 1211 1183 721 928 999 989 982 982 527 768 843 748 941 744 722 1029 835 824 851 988 913 1068 897 920 920 948 1121 1118 1157 1242 1102 875 820 950 1147 1135 964 861 780 813 813 933 633 567 610 514 741 507 466 527 625 385 448 589 757 748 748 573 510 661 557 549 505 539 568 586 570 524 521 532 756 794 603 603 647 717 743 752 847 1000 1138 1264 1098 1090 1161 1126 1201 1214 1190 1190 1039 876 991 1165 1260 960 997 1209 1418 1449 1445 1437 1080 943 765 765 599 609 649 729 729 641 738 917 1006 811 765 714 627 634 649 641 641 650 617 612 608 612 631 667 686 700 732 720 726 696 627 562 562 935 1014 1025 985 1067 1320 1401 1294 1210 1250 1250 1182 1169 1265 1410 1410 1601 1809 1711 1581 1463 1562 1998 1706 710 472 1563 1861 1428 1679 1175 1175 1308 871 868 839 165 280 354 339 1207 1232 1446 1263 666 1044 1203 1236 1236 1194 1142 1108 1205 1211 1315 1808 2046 2106 2322 2130 2098 1792 1233 859 859 1030 1041 1017 1013 918 821 788 783 785 709 701 910 964 882 872 872 903 906 830 822 836 1000 970 829 690 625 529 789 947 736 778 804 804 801 814 761 802 798 893 830 713 936 952 901 1013 1192 1278 1035 1035 948 946 794 784 724 765 1102 1287 943 716 880 426 925 871 628 628 564 639 377 421 289 243 350 342 531 659 690 726 710 744 848 994 994 1197 1616 1770 1584 1534 1399 1335 1242 1110 1076 1044 1040 1003 848 953 953 931 748 827 914 921 931 989 1083 1083 1286 1130 1051 932 896 886 886 953 1211 1167 1111 1442 838 881 809 570 266 303 351 312 321 253 253 263 272 303 333 273 335 314 341 337 311 366 286 487 566 470 556 556 498 438 378 328 374 371 439 516 420 613 717 980 2228 3388 3400 3400 2180 2082 2518 2426 1490 1782 2210 1695 1843 1834 2102 1038 3533 3239 1928 1928 2042 1282 914 1521 1069 864 678 741 762 767 780 791 839 954 1019 1024 1024 1026 1029 996 1016 919 802 797 812 861 742 789 740 643 673 687 687 613 563 487 345 473 523 564 551 529 462 467 524 658 991 890 890 989 1225 819 978 1161 1203 1110 1366 1430 1297 1121 1217 1409 1496 1394 1425 1425 1427 1347 1215 1154 1528 1781 2114 1552 1635 1456 1316 1343 1388 1367 1327 1327 1259 1175 1231 1287 1125 1013 694 679 829 838 736 361 486 576 566 566 490 484 465 427 355 336 302 262 253 296 367 353 333 265 265 265 330 390 554 609 229 191 361 473 365 366 339 292 217 255 163 112 112 61 -80 -31 34 60 77 125 111 115 110 116 346 94 181 332 332 312 203 463 308 404 687 619 469 379 344 352 364 452 386 299 299 434 377 385 837 418 119 218 368 456 572 521 582 643 634 669 706 706 694 716 839 1093 1130 1055 1102 1088 1172 1143 1300 1175 1357 2191 2167 2167 2111 1797 1945 1846 1824 1704 1839 1796 1783 1419 1105 1284 1770 2055 2181 2181 2294 2305 2103 1841 1849 1991 2044 2165 2098 2025 2038 2046 2417 2496 2477 2487 2487 2408 2663 2663 2351 1921 1873 1691 2137 1886 1407 1465 1842 2169 1575 1561 1561 1440 1297 1264 1549 1788 1805 1910 1996 1938 1860 1824 1710 1739 1852 1641 1641 1612 1293 1269 1262 1219 395 1387 239 116 121 1289 1170 1722 1704 1735 1735 1313 1801 2092 1974 1940 1164 2145 1771 1597 1876
872 1015 1382 1302 1149 1149 1135 1220 1319 1109 1201 1178 1034 868 950 726 597 1085 1069 728 1028 1028 716 850 852 683 992 692 1229 1292 833 757 834 919 865 794 877 830 830 958 1027 1052 1105 1178 1131 993 897 1005 1070 957 850 797 740 715 715 786 818 651 529 548 428 323 724 544 325 344 465 506 555 525 525 489 479 432 430 514 503 444 462 526 527 534 575 540 589 542 624 624 779 793 754 805 979 955 1274 1235 1042 1000 1306 1439 1379 1333 971 971 812 766 1107 1169 1137 1035 994 1160 1482 1557 1508 1317 1031 888 756 756 642 584 545 579 577 621 779 992 1196 918 868 912 765 719 697 770 770 679 613 595 594 590 569 622 620 651 648 644 661 665 632 627 627 442 399 820 1259 1296 1305 1207 1153 1170 1215 1043 1012 1063 836 732 732 1110 1437 1619 1458 1463 1829 1930 2102 1851 1592 1366 1643 1775 1874 1762 1762 1683 1371 1148 1706 1554 1587 1997 1662 1129 1696 1603 1309 1048 1200 1356 1365 1365 1339 1283 1177 1058 1006 1132 1654 2033 2549 2436 2050 1893 1502 1160 1165 1165 1017 1020 1076 1048 982 853 782 752 719 624 757 878 895 938 891 891 879 842 843 821 849 977 1111 863 743 701 687 879 993 987 814 892 892 821 847 852 815 777 801 901 644 806 1081 973 932 1119 1273 1210 1210 942 931 841 927 1163 1431 961 928 1073 1080 1107 1431 1235 957 776 776 858 869 544 535 429 324 334 474 529 680 752 748 772 870 1047 1141 1141 1183 1308 1476 1584 1378 1402 1322 1128 1341 1486 1140 1000 1031 856 1196 1196 1262 691 728 851 1097 1110 1063 1087 1071 1170 1115 1061 945 791 803 803 822 1001 1131 926 832 962 691 639 517 223 176 149 190 397 488 488 330 346 366 443 371 409 416 465 459 372 313 304 199 337 353 388 388 361 431 468 434 400 385 491 556 667 722 677 1301 2186 2992 1641 1641 1815 1924 2133 2220 1458 2301 2797 2243 1935 2543 1912 1956 1844 1575 2859 2859 2189 1242 860 931 893 896 634 738 813 816 791 816 905 1028 978 969 969 1129 1190 949 1008 856 771 870 896 894 869 767 705 704 709 695 695 571 515 374 464 545 564 596 614 522 564 532 659 696 794 968 968 654 672 790 936 1133 1284 1105 1062 1321 1204 1063 1140 1370 1302 1295 1336 1336 1428 1533 1225 1175 1269 2046 1616 1612 1476 1361 1309 1264 1293 1331 1308 1308 1201 1242 1397 1683 1429 873 1350 561 854 747 475 73 531 593 499 499 417 433 414 357 310 329 248 190 234 178 187 202 203 163 279 279 272 373 784 694 520 227 220 261 223 256 358 394 524 485 390 278 278 43 -3 -6 -7 64 45 54 72 76 69 157 321 14 110 324 324 195 225 287 401 360 708 606 302 366 383 428 422 417 356 343 343 395 370 369 402 1054 455 303 417 415 481 553 580 625 622 634 701 701 735 780 822 826 1096 1445 981 1210 1166 1273 1236 1024 1015 2031 2189 2189 1948 1633 1655 1557 1509 1773 1958 1854 1693 1532 1536 1746 1984 1963 1966 1966 2020 1794 1857 1915 2060 2102 2043 1968 1929 1861 1414 1468 1760 1853 1697 1390 1390 1865 2717 3034 2325 2044 2128 1935 1251 998 1231 1627 1541 1343 1505 1514 1514 1420 1437 1491 1674 1853 1873 1765 1794 1633 1607 1709 1459 1486 1280 1434 1434 1452 1102 1008 1089 1069 642 402 3 311 278 1617 2036 2254 2359 1664 1664 2016 1939 2038 2159 2353 2014 2336 2535 2679 1806
842 868 927 989 1021 1021 990 1095 1285 1201 1118 1147 874 820 644 394 357 874 984 703 718 718 638 888 817 745 897 1154 828 816 913 806 867 924 1173 1015 976 922 922 911 960 999 1020 1074 1111 1008 934 1046 1010 922 839 731 702 701 701 759 672 536 460 623 632 391 452 630 380 384 389 393 361 389 389 485 450 434 409 406 522 391 474 478 496 546 605 472 1252 967 660 660 636 710 723 814 1077 1024 905 873 901 1032 1182 1184 1262 1248 904 904 746 585 729 1024 974 877 700 705 1131 1305 1526 1295 1001 866 739 739 665 593 538 527 564 691 912 1134 1009 730 642 621 620 730 730 655 655 862 568 528 486 499 546 500 503 528 581 610 622 633 930 957 957 1006 1236 740 790 1008 985 1083 932 976 974 966 1118 1168 1275 922 922 1179 1209 860 1393 1772 1887 1796 1507 1118 1309 1453 727 812 1491 1751 1751 1586 1326 1010 1351 1231 1400 1446 1274 1103 1127 1309 1323 605 890 1400 1283 1283 1097 1247 1061 955 1050 1145 1320 1580 2254 2448 1991 1671 1407 1186 1243 1243 1232 1086 1088 1066 956 883 826 786 701 644 723 782 894 1146 1086 1086 1010 990 996 935 970 1678 1257 1338 760 740 1965 1974 899 973 1075 1304 1304 1056 931 889 810 727 693 1020 775 886 993 1010 938 1123 1030 967 967 827 983 1118 1299 1532 1712 1314 1133 1002 1137 1227 1183 1134 1096 959 959 864 756 887 856 695 575 636 574 724 833 740 754 829 905 975 1420 1420 1160 1320 1326 1265 1734 1395 1219 1029 1294 1684 1281 1086 1083 1045 1291 1291 1075 1174 1139 1014 882 1038 1121 1177 1147 1189 1204 1087 880 902 910 910 750 749 942 1114 1036 1092 661 546 442 241 119 28 95 393 781 781 612 323 401 415 564 458 391 398 318 291 318 401 287 422 344 330 330 437 272 247 343 396 429 491 574 633 761 709 748 1151 1510 1963 1963 2144 2091 2065 1766 1658 2762 2914 1854 1997 2326 2782 2306 2079 2181 2306 2306 1081 1075 1044 1032 719 728 742 785 788 794 786 826 890 935 860 643 643 924 924 792 900 966 895 934 987 951 899 842 803 698 717 703 703 570 513 548 594 687 698 667 687 626 634 720 744 803 656 616 616 646 677 799 1117 1231 1178 1082 979 997 1046 1069 1173 1282 1247 1283 1482 1482 1573 1550 1400 1514 1849 2092 1821 1507 1322 1315 1391 1315 1263 1408 1659 1659 1215 1258 1423 1329 1061 1121 1379 744 20 377 145 543 670 590 518 518 463 405 373 345 293 297 238 194 117 167 150 108 135 132 245 245 387 344 365 302 266 103 237 457 612 365 361 327 350 344 276 161 161 106 91 -77 -64 16 76 113 88 81 96 165 187 95 143 125 125 176 206 235 157 202 227 373 251 285 268 362 373 304 429 389 389 458 593 578 499 464 887 593 617 437 497 559 573 626 649 724 784 784 773 737 809 816 919 1232 1007 1182 1664 1912 2330 2476 2211 1362 1830 1830 1808 1552 1609 1574 1477 1625 1664 1575 1480 1552 1686 1811 1952 2210 2472 2472 1795 1677 1662 1500 1760 2011 2324 2373 2309 2069 2141 1894 1634 2364 2295 2733 2733 2248 2429 3171 2231 1794 1345 1660 1175 1088 1257 1706 1628 1430 1433 1453 1453 1464 1571 1717 1846 1905 1964 1942 1754 1583 1644 1924 1973 1921 1909 1662 1662 1283 1236 334 676 1556 2771 2553 286 1290 1269 1005 2080 2352 2240 1876 1876 1832 1729 1772 2026 2092 2004 2426 1515 1369 2325
852 931 1118 1139 963 963 922 886 1060 1022 976 971 830 441 583 488 167 519 444 656 433 433 440 598 785 726 593 808 775 733 991 970 803 899 1085 1214 970 919 919 921 964 994 967 1020 1100 1120 1132 -44 -72 252 855 743 677 650 650 607 552 728 648 388 373 513 547 546 567 536 353 314 247 316 316 343 346 347 367 482 473 448 521 489 474 489 457 456 767 797 724 724 792 788 738 746 799 729 835 1005 947 1044 1093 995 978 992 1038 1038 861 633 672 691 657 739 625 779 1182 1005 1342 1273 971 871 746 746 689 614 532 523 596 790 1276 1129 817 640 568 536 566 619 928 762 762 881 589 472 816 933 614 458 392 409 545 629 595 603 914 964 964 1168 1089 1116 1222 880 902 422 497 837 1038 1061 1466 1465 1359 1422 1422 1367 1399 1316 1595 1734 1780 1746 1666 1350 963 1260 1208 966 1087 1214 1214 1375 1399 1080 632 767 1275 1274 1242 1037 783 1118 1023 963 630 995 783 783 402 446 1254 1067 1170 1289 1396 1480 1684 1867 1612 1391 1068 1223 1309 1309 1010 1079 1091 1109 942 889 898 922 797 705 691 801 900 1033 1120 1120 1067 1055 1036 1060 1013 1367 1060 1079 790 691 719 778 844 1022 1067 1248 1248 1102 957 937 838 728 841 1088 1122 1101 1103 1140 1045 1250 1188 1042 1042 792 1036 992 1172 1322 1331 1296 1300 1222 1333 1317 1339 1316 987 1143 1143 1015 967 1162 717 823 711 756 734 758 1068 766 792 880 912 1229 1261 1261 1066 1313 1432 1210 1387 1302 1173 1192 1530 1547 1198 1069 987 956 994 994 871 824 1138 876 929 1130 1231 1295 1145 1275 1169 1279 851 900 1220 1220 671 688 778 658 873 792 622 634 402 222 160 75 147 652 457 457 411 233 529 291 347 380 385 462 279 215 286 428 393 453 459 320 320 413 410 336 339 378 451 494 552 675 694 642 986 1460 2046 2173 2173 2436 2379 2189 1900 1673 1659 2170 1867 1781 1124 3010 2020 1887 2612 1824 1824 953 1157 1151 1023 787 777 813 760 749 757 791 819 866 921 894 1011 1011 732 557 825 1069 1047 1022 1010 971 913 894 850 789 725 646 626 626 599 573 580 620 768 827 702 663 615 633 741 512 678 614 728 728 714 744 782 1110 1206 1047 970 937 950 970 1053 1156 1204 1216 1289 1424 1424 1471 1470 1418 1517 1681 2306 1918 1739 1570 1379 1563 1573 1338 1513 1305 1305 1516 1290 1282 1207 1064 954 1450 1272 867 624 812 724 605 538 576 576 498 484 428 440 325 277 212 176 117 128 130 53 113 194 259 259 364 289 301 158 40 107 275 429 635 745 593 367 240 328 269 275 275 195 148 -74 -103 5 73 84 61 76 122 117 143 110 107 140 140 233 236 249 197 151 143 444 352 305 245 271 252 279 339 390 390 444 636 720 564 492 566 540 490 451 510 576 639 686 713 729 856 856 837 765 830 917 1184 1432 1402 1240 1263 1727 1797 1793 1854 1877 1605 1605 1653 1706 1626 1491 1463 1486 1381 1270 1465 1688 1869 1961 2295 2457 2479 2479 1792 1928 1833 1496 1518 1956 2066 2282 2207 2071 2402 1948 1934 2256 2673 1265 1265 1433 2626 2654 2125 2237 2449 1773 2125 3109 2208 2088 1834 1499 1385 1502 1502 1480 1560 1615 1756 1936 2049 2074 1926 1570 1810 1860 1532 1308 1530 1498 1498 1486 359 359 753 1858 -22 117 331 677 1557 1987 1790 1991 2034 1850 1850 1643 1705 1722 2130 2132 2038 2322 1980 1282 1879
835 997 1007 853 866 866 935 1010 1214 997 980 765 935 505 819 656 229 399 488 562 576 576 748 547 811 856 530 600 649 621 1033 1097 709 1224 1469 1104 1004 971 971 912 890 909 934 945 1103 1212 1182 -193 -369 -125 818 673 551 615 615 586 597 694 408 377 172 333 472 401 679 460 641 1025 456 244 244 383 384 438 468 461 488 551 440 503 502 477 437 497 692 834 903 903 627 652 664 607 621 724 979 917 818 868 921 943 896 897 1018 1018 947 686 671 716 682 703 529 792 1106 801 1141 1236 901 766 714 714 694 675 665 642 749 983 896 814 674 634 590 523 490 505 552 672 672 790 713 655 1091 748 556 370 337 421 622 646 542 556 612 800 800 982 1023 1054 1027 1221 1349 837 1400 1480 1573 1616 1442 1332 1410 1443 1443 1511 1495 1467 1544 1573 1581 1536 1374 1402 1367 1492 1423 1511 843 823 823 1298 1138 1011 1032 772 1224 1196 1047 830 659 1079 1383 1129 949 1161 1328 1328 1240 1178 231 1485 1308 1393 1922 1670 1529 1534 1373 1218 995 1283 1159 1159 1107 1055 1070 1224 958 1058 1082 1175 969 742 765 772 840 871 988 988 1059 1024 973 1012 1017 1011 1010 883 836 789 808 1033 948 958 1044 1267 1267 1285 981 867 833 855 939 1134 1340 1117 1125 1071 957 1044 1051 1096 1096 852 963 1007 951 917 920 897 985 995 890 781 1129 1183 1210 1144 1144 1089 935 1048 911 906 910 973 711 720 890 856 1169 1047 808 806 833 833 960 1116 1287 1378 1488 1255 1177 1109 1225 1638 1416 1083 1076 960 984 984 1000 999 959 988 1065 1165 1282 1385 1253 1095 913 852 817 1022 1008 1008 753 757 705 610 628 560 645 713 341 146 -33 87 125 517 421 421 516 544 387 646 336 423 295 266 235 159 214 537 449 383 582 734 734 332 352 295 322 350 432 518 624 818 987 1247 1238 1857 2268 2223 2223 2261 2204 1983 2074 2097 2292 2220 2147 1287 1344 1828 2238 1303 1682 835 835 1614 1058 946 792 755 682 489 732 812 1159 875 842 850 932 1059 1040 1040 650 694 820 1029 991 986 990 936 855 825 809 746 662 639 664 664 667 784 767 698 686 717 696 539 648 678 654 475 499 664 715 715 728 758 890 1154 1154 880 896 900 980 1111 1119 1054 1295 1316 1230 1257 1257 1310 1384 1429 1608 1636 1569 1682 1672 1719 1402 1586 1565 1574 1936 1416 1416 1244 1229 1159 1103 1141 1628 1131 1326 1054 837 870 746 629 622 566 566 626 593 541 434 240 186 112 125 77 92 4 12 48 218 426 426 435 240 404 188 171 218 280 298 362 437 464 417 457 434 412 322 322 154 49 -12 10 36 61 136 127 144 124 32 306 178 155 189 189 156 139 182 218 271 214 452 415 383 292 342 596 349 212 384 384 389 537 627 592 564 561 661 437 503 537 645 697 789 723 722 770 770 812 791 846 1021 960 1482 1900 1152 1439 1707 1369 1306 1531 1586 1583 1583 1533 1511 1493 1467 1428 1315 1216 1269 1626 1702 1745 2020 2422 2914 2836 2836 2067 1958 1326 1372 1745 1128 1153 1407 1790 1657 879 1879 1765 2327 2715 2619 2619 2463 2966 2797 1831 1689 2323 2101 1819 2038 2314 2034 1774 1576 1430 1792 1792 1584 1576 1563 1702 1764 1838 1891 1850 1736 1782 2015 1625 1570 1602 1148 1148 798 1169 1048 1407 1277 2443 1284 1391 1956 2166 1464 1869 1751 1659 1680 1680 1685 1803 1845 2044 2289 2017 1894 2235 1589 997
895 925 748 719 848 848 965 1253 1282 989 825 881 1161 581 294 844 610 431 597 377 580 580 949 954 841 712 478 611 782 509 517 873 753 1241 956 942 973 930 930 886 867 903 799 861 1006 1238 1432 48 -98 -67 688 627 578 555 555 532 571 549 384 399 326 227 432 479 329 269 208 205 269 306 306 482 578 468 253 433 572 484 500 531 547 477 810 560 658 636 630 630 673 715 630 409 410 607 657 643 686 720 759 791 818 784 829 829 918 728 621 655 681 655 633 1137 937 754 1102 1141 829 757 760 760 860 829 891 989 1016 752 753 751 697 713 604 537 507 537 598 650 650 665 739 612 607 681 495 306 341 381 390 415 474 494 533 589 589 714 1195 1398 1226 1172 1014 1019 1180 1311 1485 1537 1365 1068 1001 1106 1106 1216 1316 1264 1203 1160 1000 1101 892 875 820 919 1543 1986 1725 1221 1221 1191 1083 969 761 550 1407 1187 911 753 756 624 762 1010 1001 881 1322 1322 1160 847 755 1430 1290 1359 1511 1382 1338 1382 1139 1139 1156 1138 1148 1148 1106 1084 1083 1028 780 639 914 1091 981 818 787 808 842 878 889 889 936 965 1015 1135 1279 1080 968 889 812 836 898 1059 953 977 1052 1179 1179 1262 1055 885 917 872 958 1089 1058 973 1077 996 1068 1245 1362 1469 1469 1213 1147 998 951 885 829 814 863 775 759 836 881 1107 1171 954 954 982 985 1298 855 849 1028 1223 1229 1208 1192 863 852 873 753 725 723 723 793 941 1041 1227 1259 1174 1149 1107 1128 1176 1236 1318 1215 1152 1230 1230 1358 1299 1137 1147 1111 1488 1381 1639 1245 1072 912 885 873 1158 901 901 723 666 634 521 459 432 358 686 511 186 28 -43 -70 -7 9 9 197 236 611 425 195 225 246 227 261 -10 31 90 96 381 952 311 311 400 247 221 294 351 452 511 784 1004 1130 1370 1844 1781 2581 2667 2667 2591 2225 2162 2114 2011 2173 2663 2207 1025 2483 1982 2379 1323 1148 983 983 1270 1316 922 788 662 740 755 796 902 922 933 937 884 899 931 966 966 735 899 802 975 938 895 1001 941 893 928 861 850 740 731 699 699 781 817 865 734 674 635 594 564 656 717 771 588 803 785 674 674 686 775 1024 1195 1107 897 950 988 981 1013 927 927 1164 1586 1551 1318 1318 1200 1325 1284 1472 1581 1699 1604 2285 2031 1525 1697 1665 1775 1353 1226 1226 1173 1176 1342 1168 1060 1348 1586 1568 1307 1033 831 730 725 601 491 491 581 462 452 346 316 238 117 71 54 14 52 -25 84 257 186 186 295 620 590 333 143 236 298 256 279 308 325 342 299 328 367 148 148 124 145 243 192 80 93 100 143 117 72 290 190 129 98 119 119 94 132 172 214 244 240 205 554 338 326 390 470 383 429 387 387 342 573 561 598 537 542 640 830 513 612 704 740 827 767 792 722 722 773 835 847 851 734 1324 1069 1055 1296 1452 1647 1797 1725 1425 1289 1289 1315 1382 1414 1421 1404 1381 1432 1697 1948 1845 1911 1858 2114 2474 1835 1835 956 1173 765 806 1911 1841 752 603 1357 1076 1304 1644 2237 2447 2271 2372 2372 2648 2807 2257 1747 1981 2050 1837 2633 2632 2761 2247 1881 1561 1702 1286 1286 1257 1465 1532 1631 1668 1667 1786 1726 1699 1621 1758 1781 1777 1402 1206 1206 754 811 1258 1184 2632 2065 1405 1753 1906 1496 1648 1670 1577 1530 1641 1641 1481 1801 1880 1839 1633 1904 1860 2430 2285 970
687 740 677 646 851 851 904 995 1022 981 585 781 813 460 406 493 1358 688 645 424 768 768 941 516 528 599 396 548 622 479 552 970 925 862 859 908 934 937 937 927 889 828 721 801 932 1118 1357 1213 974 829 576 593 522 491 491 518 546 556 439 367 377 270 395 417 293 207 197 230 340 471 471 700 514 343 256 400 490 516 644 612 572 584 591 598 649 689 729 729 801 909 689 670 370 426 557 625 624 576 582 644 751 752 754 754 825 745 574 521 522 506 506 766 717 593 1029 1271 975 788 707 707 714 704 722 659 654 667 661 694 775 681 575 492 489 493 624 732 732 606 503 442 529 649 538 413 417 417 399 409 459 473 555 625 625 804 1064 1304 1428 1265 1143 1085 1133 1185 1304 1492 977 966 962 966 966 986 944 1003 981 930 925 986 932 850 698 739 686 937 942 713 713 1359 1197 971 1062 507 1175 1569 1682 1239 925 938 820 1000 1071 1037 1373 1373 1567 1097 331 1598 1365 1307 1078 694 1111 1182 565 1244 1280 1177 1219 1219 1162 1222 1158 853 695 658 737 995 921 915 922 868 867 863 881 881 911 964 1011 1079 1229 1028 941 852 787 868 932 922 928 977 943 929 929 891 904 1081 1034 975 995 1124 1054 1074 1097 1161 1131 1351 1208 1480 1480 1410 1320 1053 782 807 744 687 677 666 722 697 873 1249 879 1029 1029 1195 1175 1264 916 970 1011 1059 988 936 1108 801 797 922 867 714 702 702 725 801 962 1040 1038 1017 1182 1287 1171 1129 1162 1182 1148 1080 1193 1193 1267 1462 1110 1078 1799 1629 1582 1711 1226 978 904 852 779 846 766 766 656 661 644 520 435 333 296 476 490 203 142 66 11 91 52 52 247 355 402 421 238 115 278 435 571 492 463 269 367 523 915 336 336 260 123 188 266 348 445 502 878 1183 1409 1904 1759 1439 1287 1582 1582 2216 2520 1910 1727 1638 2262 2663 2784 3057 1892 1372 1610 1370 1758 1777 1777 1297 1295 1002 1091 721 731 872 879 945 968 937 879 860 904 1047 1088 1088 1064 939 771 755 888 927 900 880 123 112 923 924 844 754 710 710 670 689 698 681 681 685 707 676 693 792 808 797 1068 887 599 599 657 738 1000 1464 1117 1332 1267 1361 1050 877 858 1061 1332 1298 1317 1221 1221 1317 1988 1486 1823 1611 1525 1405 1625 1839 1686 1675 1624 1554 1237 1169 1169 1168 1205 1205 1225 1099 1136 1046 966 1524 1354 1162 961 860 820 641 641 678 637 586 516 366 276 163 143 96 36 -12 5 223 405 420 420 405 684 483 224 108 170 163 178 202 224 237 298 314 403 399 271 271 270 358 518 227 170 87 24 47 8 26 105 46 83 49 114 114 126 161 149 162 206 209 221 291 450 344 334 397 450 568 642 642 430 478 566 584 591 586 657 716 637 748 745 740 811 726 830 841 841 874 975 926 862 862 785 1026 1037 1275 1260 1574 1855 1604 1243 1173 1173 1246 1386 1310 1370 1459 1553 1699 1782 1989 2120 2001 2021 1686 1630 1158 1158 -616 685 449 2119 2426 1928 1084 1223 1285 1287 1241 2096 2070 2129 2175 2349 2349 2498 2383 2121 1702 2004 2101 2025 2567 2952 2907 2099 1896 1454 1666 1722 1722 1385 1637 1595 1602 1630 1590 1506 1533 1893 1941 1822 1879 1776 1076 1451 1451 1479 1479 1259 1250 1617 -223 1241 1425 1557 1472 1775 1774 1654 1527 1642 1642 1940 2066 1707 1523 1787 1820 1974 2271 2544 727
646 669 714 679 743 743 779 750 817 814 614 834 592 414 946 659 756 790 627 632 805 805 901 205 379 636 542 399 439 385 416 1144 927 711 774 909 883 847 847 926 984 868 765 926 948 985 1044 837 737 617 527 477 531 455 455 645 609 565 467 402 495 262 338 475 325 267 188 230 326 605 605 650 383 343 301 253 381 507 558 561 561 671 784 852 871 895 1057 1057 1058 830 749 948 513 513 585 699 691 427 732 1229 838 719 778 778 784 680 542 457 438 402 427 466 535 665 870 1292 1318 925 672 672 720 673 590 555 552 541 575 634 671 528 448 491 512 453 461 495 495 564 460 478 532 565 631 807 547 421 420 416 417 472 587 664 664 781 908 926 876 1044 1324 1321 1499 1273 1317 1148 896 903 965 1028 1028 874 857 789 735 683 557 547 642 848 923 878 808 981 827 1078 1078 1118 1098 954 1306 748 1035 1400 1019 819 949 935 926 970 735 1343 1364 1364 1355 1019 2662 2319 1372 1498 839 830 601 372 1027 1306 1377 1285 1270 1270 1220 1292 1327 1104 677 663 638 727 911 948 1008 1011 1016 1032 991 991 961 1003 1001 1018 1097 1005 929 881 893 977 1016 953 890 878 844 816 816 846 951 1069 1160 1343 1131 1145 901 1000 1123 1317 1500 1358 1188 1094 1094 1074 1057 840 719 723 716 657 645 666 712 801 1033 1284 1001 1010 1010 1310 1056 1280 1035 1083 1373 1234 1018 -302 774 722 748 720 662 749 717 717 702 807 1037 1231 994 949 1153 1423 1685 1450 1147 1137 1128 1153 1528 1528 1588 1131 1079 1139 1731 1574 1604 1508 1236 853 836 871 749 724 677 677 615 543 550 514 547 353 270 257 181 190 195 157 83 41 53 53 83 132 174 180 182 237 202 329 360 272 229 280 399 287 361 142 142 -4 204 371 346 369 481 577 923 1055 1659 1752 1374 1429 1302 1504 1504 1865 2510 3002 2197 1986 1455 1860 2143 2295 773 888 1095 1619 1100 1938 1938 2616 1927 717 1581 1395 1016 847 920 991 1004 1021 1017 1023 1095 1126 1123 1123 1089 931 875 867 834 746 949 946 1018 858 873 909 875 745 662 662 609 663 690 710 772 781 842 825 802 880 832 1012 838 676 670 670 772 838 958 1199 1487 1136 1414 1140 949 943 1041 966 1122 1208 1178 1138 1138 1216 1287 1432 1561 2468 1955 1769 1686 1976 1848 1592 1623 1533 1384 1192 1192 1072 1089 1145 1231 1051 950 1045 1195 1251 1328 1291 1054 884 740 603 603 598 533 530 443 418 432 398 348 329 317 213 107 149 360 428 428 465 751 562 187 159 159 149 152 193 214 225 170 161 179 249 174 174 210 143 134 162 111 67 9 7 -18 -22 20 20 87 134 267 267 330 221 244 199 212 221 232 241 247 349 345 361 403 631 760 760 763 742 596 553 656 671 748 756 780 765 750 726 699 626 774 742 742 825 1032 1017 854 1252 1234 1231 1361 1603 1376 1183 1171 1342 1414 1421 1421 1477 1405 1180 1189 964 284 498 709 1399 1809 1676 1610 1893 1746 1471 1471 1868 1816 1953 1699 2174 1706 1101 957 1221 1602 1640 1518 1904 1890 2072 2940 2940 2934 2271 2027 2067 1993 1878 2292 2650 2645 2358 1855 1707 1667 1775 1545 1545 1419 1558 1739 1712 1696 1797 1830 1870 1921 1898 1862 1953 2004 1559 951 951 2412 1895 1682 1170 1183 337 -132 643 1437 1583 1719 1761 1732 1728 1880 1880 2054 2147 1734 1429 1599 1951 1819 2157 2294 1401
567 616 608 690 700 700 776 736 827 843 545 662 332 856 539 481 644 538 392 502 829 829 1179 159 400 687 558 404 318 321 345 808 616 696 738 823 830 924 924 1052 1098 851 811 1130 852 951 851 700 735 691 684 606 511 457 457 468 582 677 596 547 445 337 364 513 452 330 174 157 275 598 598 503 357 362 208 224 289 372 269 311 399 609 783 1118 1144 893 941 941 1337 1184 1006 932 672 687 667 787 561 450 805 1140 697 706 851 851 888 725 555 469 391 400 401 453 510 672 888 1143 1261 896 640 640 694 672 646 744 688 609 633 607 445 376 386 543 523 468 452 570 570 798 762 725 625 613 700 592 458 359 361 378 428 471 550 603 603 656 691 648 680 901 932 834 633 1320 1154 1000 803 696 519 429 429 511 616 625 713 664 664 678 872 996 987 956 905 1079 1145 835 835 762 871 744 1021 1029 249 402 601 973 922 991 1006 1138 933 1542 1616 1616 1643 1363 1478 826 1350 1421 1384 1310 1056 841 1278 1466 1536 1533 1422 1422 1369 1400 1394 1305 1058 605 783 708 823 979 1112 1054 1121 1072 1081 1081 1145 1067 968 1011 1026 990 896 870 917 1008 1135 1411 1003 997 1120 979 979 950 1028 1088 1416 1525 1270 1014 883 897 935 1046 1027 1279 1275 1221 1221 845 849 908 832 722 694 686 687 826 920 849 985 970 1221 1237 1237 1260 1277 1007 1087 1031 1078 1003 829 787 763 737 958 752 729 734 706 706 711 669 821 959 939 1281 1709 1758 1984 1477 1240 1134 1138 1229 1345 1345 1297 1431 1234 1269 1629 1402 1311 1261 1112 865 819 805 736 649 581 581 582 530 507 543 569 450 345 238 176 174 116 55 53 39 56 56 63 68 -11 102 67 101 119 73 65 8 -19 160 266 172 256 429 429 106 403 236 281 371 494 614 719 1155 1655 807 1350 1283 1287 1572 1572 1801 2180 2267 1421 2518 1237 1048 1325 746 826 731 916 1650 1348 852 852 862 811 768 782 775 809 862 888 982 1032 1063 1060 1126 1262 1255 1224 1224 1224 1205 1150 1210 1195 1000 972 1001 1022 1192 983 1109 1034 935 812 812 752 677 745 781 939 890 831 865 917 788 772 864 990 898 835 835 897 944 971 1277 1084 898 1148 1151 1222 1032 860 898 902 974 954 913 913 982 1105 1412 1545 1412 1424 1648 2308 2067 1611 1521 1646 1438 1728 1667 1667 1515 1238 1080 1126 1119 745 910 975 1017 1057 1208 1078 889 692 636 636 574 529 460 406 425 469 556 559 470 584 218 308 -46 303 120 120 354 363 127 144 226 191 168 186 199 227 215 164 140 138 197 44 44 186 42 105 139 68 -37 -51 -52 -49 -41 27 104 89 132 126 126 221 225 366 290 250 268 298 339 329 388 386 413 449 454 494 494 622 761 848 970 890 913 953 820 702 670 676 674 735 807 615 656 656 1087 1109 1018 1353 1327 1213 1763 1650 1293 1345 1293 1280 724 947 2861 2861 3011 1940 1097 633 625 924 1408 1453 398 1610 2034 1911 1473 1025 1295 1295 1590 1832 1869 1857 2249 2064 1920 1735 1893 1965 2043 1510 854 1974 2342 2748 2748 1782 2063 1913 2232 2268 2448 3079 3464 2279 2445 2239 1890 1877 1756 1580 1580 1638 1555 2027 1890 1894 2060 2089 2167 1971 1823 1747 1770 1924 1651 1859 1859 1568 1937 1304 3212 3177 1943 845 776 1676 1609 1668 1782 1819 1753 1875 1875 1762 1901 1894 1818 1734 1709 1879 2074 2160 1920
519 582 535 555 656 656 897 921 937 852 649 487 573 488 573 413 547 321 738 477 42 42 985 470 325 716 743 451 173 446 456 516 676 729 793 901 844 926 926 1018 935 787 802 637 624 857 757 632 573 678 790 762 615 424 424 432 511 578 559 548 672 544 393 451 425 328 193 130 335 448 448 328 247 231 191 256 358 396 531 1081 793 574 798 1130 952 787 958 958 1133 923 984 793 653 696 861 668 629 844 802 591 582 723 955 955 979 702 563 474 419 428 481 458 427 518 762 1138 992 817 699 699 700 688 645 630 625 600 634 646 458 330 489 591 370 411 460 632 632 656 570 616 698 673 581 486 444 345 374 426 465 502 550 529 529 575 622 586 686 819 719 803 929 1104 948 961 704 534 457 405 405 468 477 582 679 679 654 655 765 1081 1061 976 907 1069 1142 1065 1065 928 579 680 820 1001 1053 1004 886 931 862 913 1011 1092 1065 1104 1487 1487 1624 1483 1356 1064 1457 1496 1016 1204 1317 1243 1292 1363 1249 1211 1267 1267 1234 1272 1434 1520 1174 1034 1009 1219 921 949 1102 1259 1245 1139 1112 1112 1087 1031 991 1037 1060 1022 973 912 931 954 1061 1071 1064 984 999 994 994 1002 1056 1186 1228 1418 1222 1224 1115 1419 1693 1657 1150 1189 1287 979 979 851 852 1017 1083 807 733 676 611 652 1190 931 1146 1053 1093 945 945 1228 804 1244 1243 1194 1075 971 863 787 865 910 1203 1144 841 745 749 749 718 710 715 750 814 1039 1362 1427 1571 1494 1074 1142 1108 1132 1111 1111 1208 1601 1298 1242 1478 1276 1205 1029 957 792 809 715 660 708 553 553 524 462 486 621 545 466 413 311 222 159 103 83 -5 -28 2 2 4 17 40 97 96 -3 246 333 315 -35 607 211 417 213 -170 57 57 153 723 519 486 421 463 569 599 1144 1567 1159 1378 1299 1250 1496 1496 1759 1841 2160 1813 1453 1302 964 576 489 816 931 788 947 842 817 817 822 760 743 744 761 811 847 875 945 991 1031 1063 1070 1574 1235 1241 1241 1209 1263 1255 1278 1287 1211 1043 1050 1026 1157 1432 1216 1316 1183 1050 1050 958 737 810 778 832 780 736 798 783 757 703 886 948 897 912 912 974 954 970 970 968 978 875 1058 1101 916 873 862 907 962 922 910 910 1019 1154 1427 1505 1563 2046 1466 1356 1342 1349 1412 1473 1591 1128 1129 1129 1028 1334 1208 1063 1104 1143 1042 926 848 1014 1325 1297 947 829 787 787 779 639 450 399 376 446 541 411 297 261 508 773 1045 75 488 488 463 61 1 119 185 89 129 176 194 232 197 93 154 72 130 121 121 3 32 42 84 12 -44 -115 -119 -88 66 183 126 45 54 105 105 197 221 259 299 334 332 302 349 392 379 397 409 475 482 484 484 622 697 902 1039 1094 1135 943 778 705 633 635 653 658 1550 1394 643 643 53 -450 651 1276 2504 2133 1590 1415 1438 1816 1815 1048 981 1209 1741 1741 1578 1326 1216 1243 1598 2032 2054 1974 1683 2126 1636 2013 440 828 1302 1302 1393 1425 1375 1145 1167 1334 1548 1629 1635 1653 1877 1942 1762 1673 1399 1748 1748 1643 592 1693 1006 2201 2709 3137 2784 1968 1755 1677 1666 1987 1790 1813 1813 1817 1716 1975 2124 2171 2296 2277 2251 1989 1704 1589 1598 1653 1612 1624 1624 1599 1434 34 2421 2366 1565 989 1465 1544 1605 1713 1822 1854 1973 1818 1818 1794 1905 1709 1733 1775 1819 1919 2024 2160 1943
474 566 552 517 606 606 724 779 815 819 857 916 278 205 390 506 748 496 489 641 379 379 590 1002 276 416 493 290 164 353 277 664 787 876 962 656 610 817 817 870 759 750 794 762 948 720 503 524 532 555 607 595 542 451 451 432 442 514 495 427 460 398 339 528 529 278 170 234 268 192 192 144 208 216 340 574 724 762 522 305 399 623 1014 1169 984 1009 1264 1264 1104 884 862 697 670 651 875 655 767 762 554 536 716 748 995 995 789 607 437 365 286 384 447 444 277 337 474 636 739 733 726 726 741 728 680 616 597 570 587 553 451 424 403 353 344 450 438 442 442 722 530 508 631 727 682 453 381 384 414 433 473 495 515 522 522 551 580 652 603 718 920 760 875 1013 906 780 789 739 529 513 513 505 519 542 583 588 593 605 620 865 1026 1052 918 840 767 870 870 868 740 725 754 760 779 787 795 776 802 846 964 1075 1203 1217 1281 1281 1382 1456 1342 1073 1171 1319 1154 996 1736 2097 1693 1368 1188 1120 1182 1182 1213 1353 1378 1268 1123 1158 1198 1379 1048 1049 1408 1276 1274 1248 1300 1300 1317 1021 1013 1037 1091 1029 1003 964 866 784 792 812 934 930 967 885 885 959 1120 1238 1189 1236 1331 1328 1276 1478 1443 1511 1362 1176 1160 1099 1099 1032 788 742 692 673 812 875 695 551 921 1162 1226 778 1087 781 781 926 940 1129 1222 1178 1232 1189 1060 901 866 1050 1048 833 761 733 744 744 755 771 762 789 834 875 1174 1269 1099 1105 906 993 1012 1018 1062 1062 1076 1364 1150 1196 1108 2423 1472 895 892 782 800 795 829 730 528 528 532 546 688 687 518 508 446 290 203 144 69 20 -6 -6 51 51 39 -18 -150 113 94 234 378 489 109 529 654 300 236 193 436 558 558 593 815 1123 676 319 324 569 700 1092 1624 1510 1363 1280 1424 1492 1492 1578 1792 2297 1542 1433 1276 1020 942 773 1290 816 997 1285 1314 881 881 816 706 705 730 807 857 825 892 899 946 993 1037 1037 998 1033 1040 1040 1077 1145 1129 1155 1157 1159 1127 1164 1216 1325 1285 1170 995 936 1009 1009 1184 1054 1004 893 856 847 793 840 955 814 820 1009 1088 1089 1015 1015 966 1007 951 900 908 1703 1406 1357 1550 921 795 805 887 892 928 1061 1061 1182 1360 1519 1716 1723 1569 1593 1383 1365 1369 1259 1230 1252 1547 1659 1659 1247 1206 1107 1067 1040 1059 1007 943 1132 772 781 1057 956 870 772 772 752 627 518 443 406 414 394 322 235 280 715 674 855 1151 454 454 247 26 10 110 100 64 148 153 174 183 96 75 71 2 -202 -120 -120 -95 -107 -54 -51 -36 -63 -45 -92 -48 50 98 70 77 93 138 138 219 224 267 287 301 316 319 348 346 413 435 417 559 704 456 456 589 635 964 1301 1298 1317 1226 1083 959 856 1076 670 -482 -590 -449 -1105 -1105 492 793 1330 1440 1605 1357 1322 1352 1249 1285 683 2331 2438 1281 1143 1143 959 1176 1305 1297 1417 1495 1549 1615 1548 1519 1506 1167 1012 1636 1511 1511 1418 1199 938 1044 1266 1139 1282 1378 1410 1445 1488 1619 1873 2180 2243 1772 1772 2015 2195 2350 2688 2644 2520 1887 2883 2519 2131 1969 1785 2550 2079 1871 1871 2083 2016 2000 2543 2349 1897 1731 2503 869 916 1473 1814 1853 1816 1498 1498 1119 1019 3431 2849 1478 1371 955 1128 1469 1711 1915 1884 1921 1979 1740 1740 1759 1948 1851 1878 1810 1825 1895 2030 2150 2132
479 516 644 760 677 677 633 574 566 610 644 251 438 256 250 499 316 842 511 869 1018 1018 969 801 533 465 346 309 206 414 501 697 738 797 686 609 713 446 446 318 624 708 724 787 780 613 601 513 594 520 493 468 457 458 458 478 489 494 521 576 623 645 947 985 597 425 347 313 385 362 362 304 345 402 520 606 573 486 411 428 504 675 777 985 916 800 796 796 935 991 782 646 620 668 734 829 692 621 569 606 779 917 583 583 454 371 80 147 349 473 537 543 261 396 458 196 369 538 708 708 714 689 669 801 802 735 605 606 704 723 630 593 635 692 532 460 460 392 378 319 427 526 568 505 413 418 505 508 487 433 505 601 601 790 665 361 501 386 487 612 639 682 737 721 717 643 604 565 565 521 548 521 561 581 608 618 616 544 549 653 584 560 567 572 572 266 444 637 819 788 690 696 749 727 790 832 881 959 948 918 1015 1015 1298 1461 811 1433 1106 815 1235 1508 1253 1217 1140 1374 1081 1041 1216 1216 1257 1281 1291 1269 1042 1228 1096 1214 1282 1252 1291 1161 1146 1256 1212 1212 1303 1290 1305 1460 1159 1097 1094 1342 1152 1192 973 1257 1409 1098 1043 996 996 1016 1089 1162 1175 1186 1148 1254 1436 1564 1335 1532 1386 1224 1180 1119 1119 1306 1154 762 840 814 654 1123 786 781 802 1145 925 746 676 868 868 893 964 1136 1289 1380 1528 1883 1859 1312 765 635 917 905 981 859 793 793 902 1223 974 912 918 928 924 931 991 978 1053 1413 1979 1908 1634 1634 1425 1551 1315 1106 895 846 926 900 793 838 800 956 1015 735 996 996 946 1004 856 708 560 373 317 279 280 195 229 302 101 181 184 184 193 44 18 87 110 174 148 214 256 118 224 191 -3 622 791 333 333 172 346 168 99 176 210 259 389 234 783 1143 1245 1335 1270 1219 1219 1201 1593 1325 809 957 716 930 228 459 590 608 720 727 766 778 778 813 901 877 891 832 950 1097 1086 965 1002 971 893 884 900 1074 984 984 974 986 1018 1036 1097 1110 1118 1171 1179 1163 1229 1140 1065 1103 1127 1127 1112 1114 1092 1072 1121 1292 1031 1191 1274 1168 1136 999 1104 1234 1147 1147 1113 1141 967 967 1005 909 962 1242 1285 1148 1177 1184 1139 1125 1149 1302 1302 1549 1389 1165 621 1016 978 1147 1335 1149 845 1067 955 882 935 941 941 986 1026 1165 929 1193 1041 843 233 515 1786 1099 776 1321 998 974 974 1107 900 576 474 395 319 392 874 360 628 758 600 772 322 80 80 63 27 30 13 39 17 17 20 100 107 -239 -494 -77 -149 -139 -158 -158 -282 -161 -108 -71 -63 -57 -64 -90 -66 26 147 228 214 198 199 199 234 270 616 434 423 494 539 459 365 390 580 519 480 536 699 699 1040 1365 1634 2066 2361 1926 1693 1311 1113 758 452 324 1006 998 663 816 816 820 873 999 1199 1237 1212 1054 1042 1206 1266 1007 870 871 879 1049 1049 1187 1491 1410 1463 1413 1318 1327 1330 1353 1340 1312 1273 1352 1360 1230 1230 986 1002 1144 1129 1196 1266 1284 1204 1140 1197 1263 1277 1260 1263 1276 1446 1446 1741 2105 2525 2700 2671 2745 2507 2297 2281 2241 2438 1930 1502 1828 1561 1561 1851 2203 2016 1174 1797 1241 1228 1698 1908 1495 1310 1371 1407 1200 401 401 1231 2916 1343 1124 1177 1175 1778 1375 1445 1479 1646 1814 1828 1831 2052 2052 1792 2037 1949 1899 1886 1888 1884 2006 2108 2219
603 708 764 736 667 667 622 510 491 438 590 252 939 558 340 233 185 398 517 538 483 483 497 532 310 337 210 338 356 210 446 781 698 692 586 1150 698 519 519 494 627 748 844 971 961 734 603 537 497 497 455 428 461 462 462 543 603 657 630 675 911 897 936 633 572 596 480 465 472 352 352 293 369 410 499 580 529 499 464 486 505 644 712 867 897 720 655 655 692 686 613 670 713 639 717 690 631 565 642 680 834 910 486 486 352 399 123 160 217 296 295 305 278 378 576 352 258 393 600 600 633 643 732 1159 1141 907 687 619 797 791 680 709 726 652 522 388 388 383 362 363 428 448 486 416 414 424 517 548 509 416 389 415 415 658 651 607 582 600 623 597 619 623 647 649 667 659 613 562 562 555 547 529 540 596 627 661 651 630 587 549 394 482 513 497 497 513 531 617 766 754 704 690 702 718 765 833 875 908 840 677 1060 1060 1071 1050 1280 1621 1611 1782 1349 1047 1052 879 1396 1185 948 1601 1439 1439 1311 1136 1012 653 461 880 1298 1370 1836 1637 1640 1253 1072 1063 1180 1180 1447 1313 1322 1320 1186 1055 1075 1168 1249 1199 1140 1089 1032 1039 1005 887 887 931 1012 1232 1293 1360 1279 1257 1366 1533 1472 1374 1624 1362 1385 1187 1187 1296 1022 896 1289 1203 762 978 828 823 757 892 865 721 698 595 595 714 838 1093 1228 1366 1341 1210 1107 960 868 703 620 606 663 750 792 792 845 1277 931 970 968 956 883 910 996 1143 1767 2905 2943 2610 2239 2239 2013 1491 1415 1090 867 811 956 1031 785 864 661 811 764 1052 926 926 1329 1046 806 883 705 357 260 328 333 132 19 81 101 118 50 50 -75 232 103 -70 -21 33 101 100 73 43 -116 -59 6 606 254 118 118 117 113 39 72 84 121 201 369 239 216 312 494 620 626 782 782 725 677 823 850 757 561 749 460 508 357 605 824 753 865 1004 1004 910 1135 972 1270 1011 1017 1092 1033 897 883 960 865 830 795 1058 1106 1106 1050 990 1041 1040 1109 1127 1138 1166 1190 1072 1036 1016 1005 1045 1150 1150 1257 1280 1281 1191 1139 1097 1317 1251 1038 1083 1192 1008 1296 1152 1233 1233 1257 1336 1300 1073 1049 941 939 1318 1509 1595 1717 1590 1383 1353 1245 960 960 1081 1052 1064 1020 952 921 1148 856 1217 1115 1097 1016 931 902 854 854 911 940 909 915 853 766 718 1218 1271 1196 875 850 807 709 678 678 792 809 751 548 967 694 773 595 611 595 319 253 158 73 26 26 54 40 27 10 11 -22 -30 46 49 -30 -260 -405 -66 -113 -41 78 78 20 -59 -29 -51 -101 -55 -76 -77 -57 38 250 200 127 135 194 194 317 305 214 157 262 255 -1 140 489 549 406 524 582 614 873 873 1070 1422 1718 1953 2063 2036 1944 1436 966 797 251 674 795 754 677 713 713 722 803 847 984 1193 1096 986 921 864 1074 1061 882 1211 1500 968 968 1029 1272 1321 1305 1214 1206 1251 1304 1317 1311 1281 1265 1248 1168 1063 1063 929 923 923 961 1101 1110 1160 1089 1011 1040 1143 1150 1096 1169 1293 1650 1650 1936 1969 1776 1997 2144 2162 1985 1770 1919 2100 2312 2141 1726 1838 1991 1991 2127 2099 2340 1809 1550 1895 1853 2347 2052 1933 1567 1596 1684 1871 1582 1582 1461 773 1361 1383 1400 1756 1319 1422 1648 1675 2199 2112 2038 2146 1757 1757 1742 1997 1845 1837 1869 1914 1993 2079 2197 2317
753 718 671 685 739 739 634 532 500 518 637 227 210 227 512 114 141 226 625 287 339 339 359 379 379 380 422 409 462 228 448 498 487 373 639 721 438 485 485 477 615 659 769 950 936 817 684 602 486 418 345 332 385 454 454 625 686 699 698 693 805 923 859 627 502 574 622 575 378 317 317 326 402 415 465 502 570 611 646 609 676 744 785 931 725 724 758 758 734 705 606 672 373 520 853 1347 1087 469 578 607 692 818 474 474 266 475 240 206 355 488 380 288 323 461 439 196 200 744 624 624 680 712 877 1157 1224 929 687 671 765 739 668 638 666 570 424 401 401 513 550 506 495 512 567 563 454 450 570 593 508 415 575 626 626 513 550 450 420 507 552 599 588 605 583 590 635 628 592 559 559 551 548 500 470 608 1036 745 661 635 582 322 -84 264 351 447 447 545 597 653 616 744 692 676 700 726 786 782 831 872 796 962 1391 1391 658 1285 1530 1451 1674 1497 1563 1773 1219 1623 1333 1772 1223 1131 815 815 1058 985 850 581 827 774 900 1332 1703 1580 1265 1224 1186 1059 1292 1292 1229 1358 1750 1363 1122 1281 1407 1239 1229 1219 1148 1090 1222 1225 1465 1170 1170 1098 1096 1243 1326 1444 1470 1537 1533 1625 1513 1373 1358 1341 1233 1221 1221 1158 986 1009 1120 1071 968 1003 962 856 800 819 702 644 796 869 869 752 813 953 985 1169 1126 1032 928 860 769 678 500 523 660 1185 813 813 814 1142 910 938 944 903 855 1241 1220 1345 2217 2662 3203 2680 2062 2062 1841 1204 1097 906 819 883 865 900 833 925 773 653 596 749 938 938 752 718 498 505 412 256 209 215 165 108 52 19 40 0 -14 -14 144 262 -39 -168 -111 -2 175 53 64 1 -36 -15 14 124 53 -4 -4 -136 -118 -39 20 60 72 249 312 348 279 288 349 396 504 573 573 665 557 509 497 510 582 479 788 443 581 743 1030 980 978 1065 1065 1188 1109 1013 822 854 942 872 864 902 916 891 841 824 798 738 837 837 946 986 1061 1141 1191 1183 1160 1114 1142 1069 1020 1023 997 1071 1065 1065 1186 1232 1133 1138 1129 1226 1298 1208 1189 1185 1285 1301 1371 1192 1284 1284 1572 1558 1345 1138 1353 1204 1119 1230 1258 1216 1219 1039 1123 1475 989 1012 1012 1039 944 853 831 932 1131 1371 1218 1219 1108 854 862 837 969 862 862 877 944 1015 931 804 698 582 638 684 831 929 759 759 643 642 642 707 705 655 668 603 718 1519 1388 1114 218 464 158 68 14 38 38 -27 -28 -23 -20 -77 -44 -51 -22 -55 -91 -128 7 150 173 32 184 184 183 74 48 16 -54 6 -37 -22 50 293 334 60 97 123 179 179 213 183 127 115 103 251 189 607 439 417 620 605 737 667 710 710 845 1273 1517 1644 1501 1402 1458 1366 887 358 390 525 638 604 648 710 710 741 796 898 935 971 1073 1106 1266 1300 1168 1098 1135 1071 1014 1207 1207 1350 1393 1350 1330 1246 1209 1202 1207 1249 1231 1164 1200 1210 1167 1016 1016 867 943 926 1007 1155 1150 1128 1077 965 936 929 901 1028 1191 1602 2161 2161 2227 1812 1585 1680 1804 1894 1880 1840 1795 1702 1788 1619 1248 1615 1703 1703 1786 2242 2181 2074 1171 1820 1785 1256 1708 1664 1527 1350 1969 1468 1688 1688 1548 1394 752 954 969 935 1306 1545 1650 1563 1703 1706 1640 1857 1801 1801 1871 1854 1701 1744 1860 1906 1991 2074 2177 2370
599 546 729 783 830 830 611 513 753 719 799 336 516 342 219 84 164 797 444 260 371 371 279 403 251 385 634 390 325 305 497 376 333 437 550 560 565 414 414 560 679 652 757 834 782 732 679 608 556 614 1497 882 423 441 441 534 627 711 790 804 769 761 872 677 483 480 523 707 494 437 437 417 428 422 423 446 490 523 582 510 513 587 647 625 592 614 685 685 858 711 757 711 555 468 677 677 539 418 507 625 700 841 472 472 209 230 288 284 475 587 561 527 628 749 369 254 368 578 611 611 982 1109 1202 1206 987 791 655 814 833 733 643 509 493 465 545 589 589 558 600 746 646 660 851 712 575 518 443 430 403 316 426 497 497 445 390 449 412 480 571 632 611 568 581 609 764 781 565 547 547 545 513 473 423 368 589 706 734 719 630 447 500 495 506 698 698 757 739 637 583 597 667 667 699 717 757 791 822 850 762 735 641 641 1320 1460 1338 1734 1637 1415 968 961 1370 1704 1360 1385 1416 1052 697 697 1108 895 800 1707 1352 733 1070 1167 1045 677 1369 1120 984 1041 1020 1020 942 894 1247 1402 1560 1712 1555 1306 1196 1111 1074 1059 1237 1582 1637 1581 1581 1553 1491 1216 1306 1452 1501 1534 1553 1535 1470 1485 1301 1306 1369 1364 1364 1183 1064 369 1051 1105 1113 1052 1100 1017 887 964 905 694 675 850 850 1126 945 887 765 790 776 836 823 850 834 609 586 562 793 1259 853 853 818 897 896 949 967 964 1277 1340 1131 1248 1623 1835 1851 2231 1995 1995 1467 752 718 805 851 987 996 881 754 688 794 736 494 551 1348 1348 844 493 392 329 336 225 173 184 200 242 194 295 495 272 251 251 200 -114 -220 -172 -128 -103 -116 -26 36 -13 -117 -109 -118 -90 2 -110 -110 -172 -189 -176 -19 34 114 201 362 403 357 336 387 410 430 468 468 491 517 453 424 674 937 699 768 676 779 833 1181 1170 1506 1661 1661 994 1085 737 791 855 904 1218 857 929 961 1041 852 883 1076 894 805 805 907 978 1065 1133 1126 1148 1113 1100 1070 1028 1001 1102 1161 998 937 937 961 981 1013 1023 1066 1146 1117 1022 1034 1169 1278 1307 1248 1459 1100 1100 1118 1204 1237 1329 1254 1172 1171 1075 1096 937 868 889 892 919 1032 1065 1065 1061 991 870 967 713 1018 972 1034 1052 1021 936 791 752 826 832 832 788 726 680 741 738 669 630 710 768 908 969 821 762 846 750 750 664 660 926 886 774 631 1453 1646 1459 367 263 108 52 35 63 63 -32 -60 -49 -72 -66 -99 -153 -117 -32 25 186 195 234 332 205 209 209 169 156 139 55 79 64 -4 56 486 367 320 63 128 161 214 214 220 199 203 263 372 533 647 547 410 582 487 468 457 477 602 602 795 936 1143 1220 1392 1499 1353 1205 873 581 551 474 481 548 635 675 675 741 849 833 810 807 1126 1101 1101 1057 1045 983 980 1038 1111 1392 1392 1240 1248 1185 1177 1167 1200 1214 1221 1199 1156 1201 1239 1259 1177 1051 1051 998 990 1002 1010 1067 1097 1096 1081 1035 929 1001 1023 1155 1898 2162 2324 2324 1872 1722 1512 1572 1656 1745 1866 1877 1910 1990 1956 1735 896 1451 1716 1716 1809 2015 2274 2148 1121 2285 1490 1571 1554 1520 1730 1940 1561 1581 1567 1567 1016 1400 1313 1096 1144 1462 1861 1847 1583 1795 1985 2011 1777 1715 1892 1892 1823 1649 1574 1584 1700 1828 1954 2007 2090 2223
587 592 644 704 762 762 757 667 615 714 799 435 320 377 280 183 206 453 213 202 302 302 354 462 150 411 569 94 85 675 624 438 470 387 1094 627 620 463 463 562 810 804 820 760 657 673 671 618 572 658 816 609 659 547 547 566 593 724 743 715 650 708 808 754 548 512 470 565 745 615 615 533 444 391 435 489 595 630 536 464 474 575 638 640 639 954 991 991 836 793 639 548 707 668 860 537 415 455 569 631 700 737 570 570 329 350 455 401 509 585 648 829 897 754 577 503 557 630 936 936 1023 1079 800 832 892 794 679 748 826 750 605 506 569 654 672 674 674 862 911 935 760 701 720 760 615 459 338 362 409 363 405 560 560 664 417 422 357 449 645 768 652 559 612 826 873 619 563 525 525 511 470 415 395 427 526 728 776 755 684 539 483 827 537 483 483 724 560 559 538 556 591 636 666 727 758 791 856 904 848 803 818 818 1046 408 785 1457 1487 1582 1652 1997 1475 1240 1429 1503 1554 1602 1529 1529 874 1087 1547 1842 1101 1217 1680 1131 1020 1186 831 565 1122 1147 905 905 1004 1172 2229 1911 2313 2662 2098 1509 1243 1161 1014 1209 1367 1566 1577 1500 1500 1655 1618 1438 1423 1492 1510 1522 1528 1508 1523 1162 1065 1435 1565 1432 1432 1424 1229 1253 1143 1138 1147 1137 1115 1101 1000 1133 909 695 913 1001 1001 956 983 890 730 606 637 713 690 730 689 602 516 657 708 854 860 860 839 843 905 906 924 938 1047 1260 1145 1125 1135 990 1313 1555 1360 1360 990 784 846 695 730 761 739 652 581 521 578 871 768 570 876 876 972 412 362 318 380 402 186 149 175 190 150 130 365 396 287 287 75 -228 -176 -110 -119 -133 -11 -19 1 -18 -73 -114 -184 -31 -123 -67 -67 -158 -216 -235 -199 -132 9 100 287 309 288 354 385 431 411 447 447 471 469 764 482 485 660 1051 969 612 527 1108 1277 1234 1459 835 835 1157 1131 1134 842 843 842 878 854 898 900 882 881 874 934 856 816 816 865 966 1072 1081 1105 1133 1113 1094 1068 1048 1007 902 775 1100 971 971 885 924 981 989 1037 1112 1040 1014 1082 1164 1219 1222 1261 1411 1208 1208 1209 1123 1140 1116 1399 1318 1319 1172 1085 1188 1313 1258 1054 1130 1150 1259 1259 1326 1067 927 1105 1011 874 887 912 904 847 826 917 974 811 833 833 730 775 639 713 785 693 745 773 810 839 814 852 771 592 637 637 682 760 814 851 759 779 1514 1908 521 294 141 67 51 -21 -3 -3 -41 -26 -67 -79 -51 -95 -88 -3 28 144 143 173 224 311 249 212 212 181 237 113 104 121 79 49 24 215 296 186 143 234 237 228 228 214 177 211 404 464 500 534 536 567 546 479 454 469 482 553 553 698 686 681 856 1077 1229 1189 1010 751 594 619 606 562 623 663 615 615 667 835 802 859 970 1082 931 935 967 960 926 896 829 893 1175 1175 1115 1102 1049 1063 1062 1136 1142 1195 1158 1182 1174 1204 1140 1112 1035 1035 1006 960 1008 1014 1027 1029 1044 1053 1046 990 1156 1711 1995 1857 2107 1904 1904 1692 1545 1449 1502 1597 1664 1810 1856 1882 1928 1851 1735 1144 1216 1598 1598 1880 1998 2092 2093 2016 1657 967 1459 920 1469 1484 1499 1651 1522 1482 1482 1410 1537 1928 1806 1151 2017 2266 2001 1830 2160 2339 2269 1883 1772 1640 1640 1749 1815 1815 1790 1717 1752 1902 2092 2130 2399
522 626 586 543 768 768 785 576 496 674 702 489 518 446 415 187 359 525 336 460 673 673 688 422 531 368 205 28 100 375 457 511 627 193 632 525 487 523 523 718 893 929 827 680 967 954 735 674 588 542 553 656 721 632 632 648 619 671 655 637 698 824 1004 951 724 626 565 511 548 577 577 615 447 391 501 641 780 828 650 608 701 820 941 837 854 752 641 641 657 585 562 505 621 876 741 590 408 459 838 970 826 908 860 860 635 437 622 410 546 648 686 728 791 849 958 986 1072 1230 1205 1205 962 764 713 757 791 774 789 802 866 700 509 440 558 715 780 901 901 1050 1052 1077 1049 1018 894 799 659 752 352 374 412 511 551 751 751 906 514 439 380 452 651 904 912 845 808 557 644 549 534 506 506 471 419 373 338 435 585 690 719 693 644 544 1047 1010 941 699 699 699 677 642 586 633 648 706 725 760 844 872 919 1131 1153 916 623 623 270 1089 1671 1386 1433 1506 1551 1640 1474 1510 1657 1768 1641 1650 1672 1672 1561 1229 2175 1329 1242 1392 953 1301 1376 1640 1312 1309 1302 1095 1373 1373 1541 1682 2266 2187 1957 2093 2297 1990 1573 1371 1395 1398 1523 1460 1603 1588 1588 1617 1641 1576 1583 1531 1556 1540 1499 1654 1650 1199 912 1169 1337 1386 1386 1331 1407 1362 1279 1239 1186 1149 1169 1158 1154 1074 1113 875 734 711 711 647 619 615 555 562 615 640 604 561 587 564 511 593 708 826 912 912 911 881 879 880 895 890 869 1354 1118 1046 914 867 1201 1317 1238 1238 823 800 774 771 936 955 713 677 830 720 547 620 596 502 419 419 588 378 522 426 357 296 125 57 122 176 200 279 491 189 78 78 -77 -137 -106 -112 -119 -77 6 -82 -82 -140 -159 -172 -134 -153 -255 -167 -167 -218 -279 -308 -272 -233 -88 -26 152 174 191 224 371 384 434 528 528 631 899 841 693 850 1160 1002 987 706 997 1063 1066 1051 1008 971 971 719 833 840 809 794 814 834 857 892 925 940 917 911 871 885 828 828 832 1001 1090 1101 1108 1097 1107 1087 1062 1063 1018 983 1040 1182 1011 1011 849 866 918 995 1025 1125 973 1009 1126 1252 1255 1222 1148 1087 1067 1067 1041 1029 1035 1130 1104 1075 947 976 1276 1419 764 494 1060 1083 973 1110 1110 1163 1059 900 716 787 905 916 1104 1064 1116 916 826 810 671 621 621 724 697 649 715 480 299 235 996 1017 979 992 991 887 588 712 712 704 702 642 537 618 901 1101 1115 582 324 147 85 40 -35 49 49 -5 -20 -47 -72 -13 -37 -12 89 150 179 179 184 300 346 334 310 310 267 361 314 306 184 109 91 52 144 103 145 210 271 283 249 249 172 149 269 402 346 372 433 602 474 469 627 493 464 426 442 442 462 482 571 701 763 759 759 685 563 526 558 556 463 526 573 558 558 656 781 732 746 762 853 832 808 809 859 807 838 783 887 920 920 851 1002 864 889 923 979 1010 1077 1090 1110 1066 1022 1004 982 942 942 857 936 944 976 976 1012 1062 630 1306 1218 1792 2072 1593 1783 1884 1624 1624 1334 1314 1339 1451 1530 1638 1705 1867 1860 1870 1767 1628 1562 985 1518 1518 1923 1863 1757 1697 1748 1538 693 1419 711 703 1349 1433 1526 1504 1426 1426 1270 1485 1983 1165 1437 2211 1817 1720 2139 2155 2127 2033 2093 1988 2315 2315 1486 1872 2235 2110 1921 1672 1717 1886 1966 2427
502 505 545 543 568 568 612 579 515 606 612 660 481 420 201 332 156 213 261 426 1125 1125 858 344 750 544 220 417 671 145 258 370 586 463 295 606 478 667 667 962 1157 990 715 690 787 778 710 654 639 575 577 646 749 649 649 694 722 674 700 763 835 993 1064 906 749 750 758 708 587 487 487 493 554 572 678 753 752 660 629 663 781 1101 943 817 676 633 540 540 571 639 634 698 751 925 766 591 588 567 548 612 660 655 671 671 522 885 713 601 730 874 940 1087 889 750 743 964 999 1189 923 923 789 763 729 723 697 671 790 920 866 659 480 378 554 1508 1115 1066 1066 1056 1068 973 1057 1132 1004 943 744 642 454 427 563 659 352 497 497 432 454 402 437 528 794 751 480 517 511 519 530 507 450 458 458 469 393 329 298 463 611 562 519 576 536 540 965 676 537 681 681 514 646 893 1051 1228 1012 842 819 877 930 990 1023 1072 1072 800 680 680 940 729 1039 1305 1439 1610 1584 1662 1638 1668 1713 1786 1631 1473 1515 1515 1445 1736 1754 1581 1775 1777 1537 1043 989 1254 1469 1203 1096 737 1735 1735 1895 1890 1985 2200 2205 2072 2228 1969 2021 1692 1565 1564 1721 1778 1457 1586 1586 1548 1622 1630 1660 1646 1723 1730 1536 1804 2005 1830 1483 1616 1685 1640 1640 1599 1545 1492 1432 1334 1272 1209 1290 1257 1131 926 727 680 573 528 528 467 429 424 462 634 685 617 518 509 563 579 521 505 492 699 946 946 1000 1000 977 968 978 916 922 1048 1323 1213 1074 1098 1200 1094 630 630 902 943 870 997 774 771 613 592 553 419 452 489 517 390 421 421 502 442 398 285 219 191 104 61 157 208 213 253 100 7 -70 -70 -84 41 -14 -45 60 27 -104 -187 -186 -238 126 126 -231 -342 -304 -328 -328 -269 -315 -347 -350 -337 -212 -122 -2 102 142 221 266 326 449 477 477 578 746 867 814 1244 1316 1822 1113 1436 1023 980 1013 900 800 609 609 1041 851 819 767 729 687 770 859 900 920 941 963 916 872 812 784 784 836 1020 1131 2200 2515 1969 1082 1058 1096 1108 986 949 1021 916 902 902 1110 1023 1009 1002 1017 1088 1243 1234 1202 1193 1118 1112 1123 1065 1038 1038 975 1014 1007 1030 1009 1009 965 906 1300 797 1020 1120 1100 996 1042 1036 1036 1181 942 1034 987 1083 1460 999 641 83 42 255 834 811 674 614 614 687 675 574 558 686 812 872 734 784 596 830 721 729 633 739 739 788 798 725 551 529 708 712 851 516 615 277 87 56 12 -4 -4 -10 -43 -39 -54 -16 -12 30 63 120 180 211 159 261 316 341 351 351 364 231 127 9 -3 43 128 172 304 209 248 237 268 272 284 284 247 340 394 321 233 414 528 417 320 544 556 391 407 515 507 507 502 513 563 491 230 402 526 557 507 499 475 410 409 552 887 938 938 682 697 649 515 494 631 673 705 619 589 608 681 708 819 988 988 790 768 822 805 854 940 990 983 1015 1060 1048 992 978 935 908 908 996 1016 983 965 938 941 1020 1158 1595 1231 1545 1789 1703 1525 1589 1630 1630 1225 1238 1306 1387 1491 1572 1647 1675 1720 1748 1716 1495 1444 1285 1510 1510 1636 1812 1773 1671 1573 1488 681 905 1116 1115 1236 1198 1176 1239 1292 1292 1272 1252 889 1195 1472 1711 1867 1730 1718 1675 1747 1863 1867 1760 1641 1641 1754 1684 1860 1932 1765 1735 1834 1908 2113 2563
497 493 446 477 638 638 727 693 673 623 554 309 442 555 125 -20 47 189 332 532 841 841 615 518 530 274 373 635 617 187 326 314 388 538 436 789 532 919 919 1160 1045 638 521 630 684 718 746 757 771 701 674 660 703 816 816 874 874 886 920 966 1214 1035 914 887 916 913 959 961 927 919 919 947 898 811 748 662 591 713 822 739 719 720 737 633 545 485 516 516 693 969 772 745 793 587 483 377 266 307 459 522 418 343 333 333 373 401 284 329 383 464 524 617 674 721 746 832 930 877 796 796 739 717 679 649 627 753 773 679 419 366 410 487 725 1006 1177 1311 1311 1554 1529 1542 1475 1343 1183 1076 994 941 859 746 568 616 864 589 589 634 543 432 452 481 491 477 499 544 529 524 486 458 394 379 379 347 498 415 345 428 477 550 505 503 441 294 740 819 675 601 601 880 1130 1732 2261 1999 1537 1425 1391 1063 971 999 1059 1068 1085 919 613 613 469 1000 1265 1576 1840 2354 2656 2272 1883 1682 1654 1748 2005 2197 2356 2356 2670 2877 2623 2207 2533 2248 2067 1925 1595 1296 1029 8 -178 641 886 886 820 1824 2701 2380 2229 2018 1753 1275 1565 1063 1160 1362 1600 1687 1685 1582 1582 1534 1472 1526 1635 1861 1819 2158 2505 2607 2449 2393 2408 2119 1990 1844 1844 1713 1610 1561 1573 1669 1863 2002 1783 1432 979 622 210 285 368 359 359 331 382 370 414 459 510 525 587 528 926 871 697 733 931 1120 1100 1100 1059 1476 1826 2121 2567 2414 2361 2223 1706 1587 1105 1059 1215 1118 1678 1678 791 901 783 839 869 757 746 899 1163 706 585 529 631 473 283 283 418 496 389 382 302 300 282 249 253 263 227 189 120 5 17 17 2 -80 -50 -60 11 -128 -155 -232 -261 -199 -380 -386 -348 -346 -301 -340 -340 -364 -381 -304 -488 -265 -265 -145 -75 99 132 168 233 359 451 513 513 516 615 750 934 1022 1024 1491 1133 1311 888 1096 1131 1373 1270 757 757 852 903 772 735 739 726 748 751 804 850 847 898 915 896 857 854 854 938 896 1061 1108 1091 1071 1011 1000 971 950 912 901 929 1002 1271 1271 1304 1359 1221 1136 950 1146 1154 986 801 998 807 964 1006 1039 1003 1003 996 939 1091 1111 1038 1042 998 1071 847 1813 1717 1437 1233 1141 926 960 960 1044 1128 1114 891 788 736 814 869 501 540 732 654 803 759 738 738 777 748 602 560 596 750 961 910 867 861 822 883 1257 1019 835 835 783 720 612 542 498 400 422 603 229 205 118 56 12 -13 -12 -12 -35 32 -13 -37 -17 152 119 93 51 96 133 215 303 317 388 355 355 182 309 466 427 506 328 427 405 323 328 358 349 348 370 351 351 348 251 440 430 431 434 268 454 451 330 595 491 303 486 652 652 468 384 371 306 262 265 289 350 332 351 306 258 265 275 462 491 491 605 484 289 288 327 315 340 453 487 505 721 794 735 771 1001 1001 898 763 793 800 720 702 748 734 748 819 928 1093 993 853 819 819 834 914 943 850 816 872 926 917 984 1177 1229 1100 1044 1032 1004 1010 1010 1067 1114 1226 1331 1403 1445 1515 1563 1590 1604 1623 1462 1473 1392 908 908 1243 1675 1558 1732 1693 1422 1260 35 1441 1231 1713 1448 906 1023 1656 1656 1705 1366 2012 2084 1700 1295 1320 1409 1475 840 1235 1788 1522 1402 1498 1498 1518 1591 1734 1968 2003 2220 2230 2365 2698 1889
464 533 483 520 587 587 614 570 602 662 640 423 371 256 408 60 102 518 552 590 735 735 390 338 342 259 541 582 434 243 716 163 317 438 288 304 385 426 426 617 736 696 743 966 956 748 768 776 812 854 811 807 877 961 961 1011 1002 961 945 901 948 951 989 1078 1111 1023 992 1011 1026 1061 1061 1123 1004 823 759 705 699 819 835 690 549 550 564 502 442 470 588 588 718 626 706 566 468 347 253 237 165 80 324 398 229 161 218 218 214 198 221 320 354 343 382 505 652 631 1010 1036 838 702 752 752 641 692 629 593 624 858 796 798 634 552 481 541 640 844 1025 1332 1332 1470 1413 1410 1280 1232 1160 1124 1057 1038 1048 930 699 655 809 728 728 659 611 467 531 556 539 552 517 532 520 494 460 445 427 425 425 414 428 492 535 397 466 514 472 545 534 418 373 681 688 734 734 1050 1505 1778 2347 2462 2193 1465 1419 996 1075 1144 1218 1327 1116 992 1092 1092 1461 1198 1366 1471 1654 1841 1941 1889 1792 1694 1689 1708 2353 2455 3109 3109 2544 2867 2782 2810 2327 2140 1951 1938 2052 1763 768 1483 2237 1716 2079 2079 1859 1570 1385 705 674 2755 1557 1896 1785 1553 1740 1858 2129 2107 1927 1896 1896 1746 1609 1496 1550 1722 2013 2401 2750 3323 3021 2657 2369 1700 1410 1350 1350 1518 1481 1403 1147 1308 1912 2013 1750 1631 1019 817 645 606 382 359 359 350 357 379 420 480 505 521 635 714 1233 802 714 788 924 1085 1181 1181 1416 1638 2103 2553 2686 2630 2563 2457 1970 1409 1276 1174 1179 1072 1370 1370 950 970 979 914 749 650 591 666 1066 699 483 445 437 538 953 953 566 402 526 511 337 368 290 329 200 221 225 250 267 186 119 119 10 228 204 -137 -195 -235 -208 -240 -280 -296 -432 -413 -386 -320 -322 -360 -360 -447 -363 -373 -349 -271 -238 -163 -39 102 109 193 265 480 519 566 566 610 670 728 841 1158 1099 977 1499 1564 1065 1388 1041 1067 833 892 892 947 948 939 855 788 786 736 742 757 765 807 816 835 908 914 942 942 888 760 821 1017 1043 1025 994 955 956 946 915 880 879 1114 1397 1397 1461 1325 1199 1090 926 923 1047 1135 930 1104 1254 1177 1197 1110 1063 1063 1030 1038 1161 1182 1092 1066 1114 1305 1491 1424 1519 961 826 809 838 963 963 1023 944 879 808 766 762 682 655 794 757 601 608 679 789 826 826 801 721 720 802 905 913 869 775 795 875 829 641 978 935 759 759 675 836 725 452 434 449 446 536 299 187 141 54 27 47 86 86 64 -57 10 -13 -74 88 130 118 51 121 144 192 195 244 361 447 447 440 68 -121 144 276 630 608 357 335 436 367 240 196 281 252 252 133 304 526 607 688 595 516 285 239 468 243 155 521 537 458 458 408 365 315 293 290 232 216 195 138 145 252 222 200 106 132 215 215 212 213 233 242 293 147 236 469 459 372 607 745 765 754 828 828 785 684 664 674 624 601 614 602 624 700 801 996 1013 1009 1020 1020 1043 897 743 679 687 758 839 792 769 844 901 942 951 940 923 914 914 966 984 1119 1194 1258 1302 1399 1395 1387 1462 1459 1439 1509 1439 1257 1257 1044 1575 1587 1551 1761 1491 1140 1838 1499 660 1146 1669 1737 1482 1683 1683 1451 2383 1812 1536 1443 1500 1457 1453 1663 1521 1521 1203 1781 1601 1658 1658 1929 2002 1879 1885 2141 2346 2585 2253 767 794
508 679 606 605 608 608 581 599 640 596 599 550 368 370 230 85 178 376 433 672 534 534 670 683 275 404 839 516 191 182 339 168 328 240 567 769 272 338 338 549 702 549 569 709 881 724 831 809 868 927 940 944 1023 1077 1077 1115 1084 1050 1030 996 984 1017 1091 1168 1156 1081 1046 1068 1089 1139 1139 1162 1087 894 786 729 700 722 704 592 477 453 465 521 543 539 637 637 535 515 648 583 345 285 181 172 126 39 277 430 187 86 273 273 358 204 268 271 283 312 319 445 574 526 644 873 775 658 610 610 609 632 652 577 553 843 942 792 679 593 561 653 752 851 878 998 998 1072 1197 1105 1154 1154 1224 1167 1194 1246 896 882 906 826 792 804 804 715 637 488 492 553 542 539 512 505 488 444 421 420 435 461 461 504 580 649 506 514 604 569 531 525 592 516 524 678 647 619 619 787 1165 1466 1433 1456 1397 1207 1233 1186 1259 1397 1567 1719 1591 1270 1308 1308 1299 1323 1431 1512 1576 1642 1667 1675 1717 1724 1686 1710 2385 2488 2453 2453 2531 2566 2947 2763 2797 2288 1631 1822 1962 1219 1840 2158 1841 1759 1580 1580 1718 1531 1383 1258 545 367 925 1826 1721 1786 1708 1693 1827 1924 1794 1809 1809 1593 1022 1127 1192 1531 1959 2177 2402 2938 2898 2664 1737 1663 1462 1398 1398 1553 1553 1457 1324 1062 1259 1401 1417 1317 1238 930 743 663 480 416 416 329 317 322 444 474 496 576 934 1032 1104 881 788 816 956 1018 1136 1136 1553 1931 2295 2586 2881 2956 2812 2510 2319 2030 1626 1200 1134 1076 1630 1630 1329 1210 1026 913 899 662 598 560 489 466 382 376 449 490 741 741 842 706 671 384 451 383 318 242 184 184 181 221 238 191 152 152 166 276 472 20 -169 -100 -337 -226 -318 -280 -431 -397 -385 -296 -367 -417 -417 -471 -385 -379 -390 -314 -253 -178 -21 -2 63 165 232 370 533 588 588 603 641 718 744 937 1206 1234 1115 695 1179 1292 516 817 839 923 923 948 983 979 933 939 925 865 925 1179 1220 1146 1126 1214 1424 1737 1457 1457 1299 902 814 897 734 950 884 910 919 906 856 859 865 924 1164 1164 1295 1315 1111 928 913 953 1429 1418 1078 1267 1468 1412 1123 1072 1015 1015 984 972 1196 1199 1238 1216 1561 1146 1695 2290 1171 817 774 782 781 909 909 895 851 854 808 782 670 648 579 376 515 568 598 691 773 867 867 871 834 905 1102 1348 1425 1786 987 1239 1399 1468 908 772 727 589 589 762 943 607 533 300 324 363 392 297 210 163 106 66 58 37 37 53 -24 15 -48 47 109 162 278 158 180 233 196 305 354 447 468 468 518 523 383 406 446 476 421 273 189 367 607 192 266 345 165 165 142 305 669 787 689 678 734 611 622 567 492 371 451 377 324 324 308 302 233 408 427 182 158 121 38 -28 -30 5 34 58 48 44 44 61 71 289 195 327 108 58 355 329 217 325 534 614 607 587 587 555 540 516 537 565 541 520 523 513 558 642 726 734 753 882 882 866 755 656 626 559 624 767 757 683 721 814 831 873 873 868 851 851 870 912 1011 1105 1155 1146 1237 1291 1342 1436 1594 1607 1603 1730 1492 1492 1243 1041 1509 1886 1685 1651 1564 986 1200 2108 1711 1624 740 1864 2115 2115 1961 1225 1545 1582 1455 1496 1839 1930 1675 1515 1518 1424 1258 1862 2072 2072 2148 2091 1988 2033 2347 2303 1900 996 646 782
360 420 464 527 597 597 654 715 682 544 560 399 240 267 219 158 294 417 475 522 494 494 506 528 568 539 552 568 532 503 308 477 253 396 93 220 364 428 428 511 469 410 434 511 670 971 831 859 934 1021 1107 1106 1126 1185 1185 1249 1223 1232 1158 1068 1137 1188 1253 1358 1412 1317 1230 1081 1145 1275 1275 1177 1073 972 860 818 761 686 641 567 606 570 765 750 832 638 616 616 431 424 503 538 450 379 130 138 138 163 269 418 296 190 380 380 673 516 432 354 354 340 325 494 492 366 499 694 920 767 636 636 607 841 741 543 543 566 739 893 766 628 598 631 685 753 750 813 813 946 1076 1091 1138 1108 1458 1367 1217 1068 949 928 880 836 812 682 682 594 540 516 514 588 575 504 469 451 447 410 369 369 342 290 290 106 572 519 533 594 755 644 575 513 603 667 598 539 616 589 589 635 747 979 985 857 873 1094 1284 1364 1325 1629 1769 1446 1345 1269 1182 1182 1183 1396 1541 1641 1775 1879 1768 1644 1651 1722 1728 1788 1880 2061 2477 2477 2480 2857 2797 2922 2370 1741 1008 934 1016 1369 1468 1373 1423 1395 1479 1479 1425 1419 1341 1558 1519 1283 852 646 2075 1661 2553 2283 1904 2144 1843 1007 1007 1130 1127 973 1094 1422 1874 1857 1970 2290 2155 2031 1884 1693 1533 1539 1539 1473 1561 1469 1465 1393 1202 1197 1146 1156 884 702 689 636 559 485 485 363 319 357 367 388 449 696 1097 870 853 743 753 848 928 1015 1182 1182 1595 1917 2264 2505 2702 2642 2726 2686 2181 1770 1415 1226 1053 1021 1655 1655 1549 1282 1066 1037 902 704 597 554 499 435 367 368 338 347 398 398 545 744 902 845 721 441 349 335 319 223 172 179 190 134 94 94 79 281 353 -46 -201 -704 -236 -223 -311 -599 -209 -362 -386 -216 -392 -508 -508 -483 -442 -286 -381 -327 -281 -220 -121 -109 -21 54 155 247 410 587 587 645 724 714 828 708 846 895 864 932 915 634 694 885 928 912 912 931 1057 1056 1075 1085 1138 1298 1257 1335 1374 1414 1430 1389 1353 1386 1363 1363 1291 1253 942 1248 1099 653 788 768 736 719 765 803 836 868 874 874 898 892 906 931 918 1017 981 933 1074 1233 1045 1212 1111 988 954 954 960 986 1054 1124 1074 910 891 23 66 877 861 791 749 817 933 907 907 848 862 822 824 841 741 640 502 423 626 625 643 639 611 667 667 587 820 1424 2014 885 999 1113 900 1070 1459 1398 916 690 585 494 494 528 695 574 493 364 367 382 314 247 155 187 160 178 113 39 39 44 27 40 -82 62 261 254 413 289 197 198 247 309 379 458 487 487 496 501 483 427 466 494 418 596 774 897 494 254 321 389 316 316 459 715 909 834 552 418 390 459 337 -112 79 218 531 368 283 283 231 188 141 270 308 69 64 15 -54 -38 -40 111 -126 5 -78 -82 -82 -57 -57 -116 -72 153 41 101 147 298 246 125 214 310 365 399 399 386 389 434 444 399 361 371 389 395 427 487 527 557 585 621 621 657 678 702 733 642 609 668 754 772 733 771 727 739 667 675 696 696 750 798 914 948 1008 1050 1137 1231 1256 1270 1297 1441 1543 1571 1637 1637 1635 1281 990 1327 1583 1677 1965 1412 1155 999 117 3764 2789 1637 918 918 924 838 1966 1982 1732 1740 1641 1949 2023 1887 1955 1720 1660 1750 1856 1856 2220 1886 1782 2311 2451 2910 1934 566 917 954
260 272 325 404 599 599 766 788 731 539 441 400 389 422 236 80 192 238 249 263 291 291 455 407 532 523 321 549 685 436 218 520 453 135 364 314 394 489 489 497 437 484 517 476 582 823 881 793 878 1031 1175 1236 1254 1359 1359 1457 1464 1486 1395 1379 1667 1589 1510 1617 1592 1486 1306 1197 1336 1337 1337 1125 1053 989 960 934 863 756 663 616 689 753 580 594 641 674 595 595 339 392 568 583 372 437 278 222 250 251 231 279 195 179 384 384 498 701 424 373 301 262 318 404 511 387 463 611 777 954 974 974 1011 916 534 472 400 233 283 437 644 662 682 627 671 837 901 991 991 869 1144 1147 1214 1307 1246 1206 1150 1027 1008 937 946 935 975 748 748 613 578 540 507 457 456 471 493 455 423 393 376 361 374 400 400 442 567 523 552 641 732 756 553 453 562 830 739 583 552 637 637 587 506 656 737 754 883 875 1063 1070 1038 1256 1265 1314 1290 1283 1227 1227 1400 1781 2141 2246 2381 2398 2216 2131 2071 1885 1679 1734 1898 2098 2303 2303 2388 2530 2797 2672 2672 2414 2193 1724 1364 903 1385 1418 1457 1592 1489 1489 1314 1372 1369 1387 1414 1354 1289 1134 1642 2028 2805 3304 2798 2712 596 784 784 1305 1344 1475 1385 1378 1515 1584 1658 1874 1881 1824 1877 1927 1911 1951 1951 1472 1238 1273 1362 1304 1177 1041 974 882 810 785 689 620 451 446 446 404 309 286 316 253 375 683 1008 918 732 699 747 840 945 1066 1154 1154 1239 1650 2146 2392 2747 2634 2414 2136 1925 1612 1347 1200 1129 1353 1647 1647 1306 1311 1147 964 830 707 609 540 431 424 405 656 679 271 226 226 258 315 629 807 881 728 515 405 260 227 172 157 151 130 58 58 36 48 13 -111 -270 -284 -369 -355 -205 16 -388 -27 -214 -127 -229 -361 -361 -36 -3 137 -354 -374 -325 -242 -240 -157 -97 26 113 201 346 499 499 596 630 683 742 819 968 969 872 846 929 863 945 869 824 1121 1121 1140 1115 1127 1243 1342 1314 1358 1290 1355 1333 1359 1356 1271 1325 1360 1310 1310 1243 1201 1164 1162 1205 1175 1175 301 649 687 714 749 776 867 868 868 924 914 904 952 999 1014 888 1015 1070 1074 1020 1145 1049 902 929 929 957 1013 1063 1069 1037 783 564 585 883 894 953 885 940 860 894 869 869 917 838 762 781 798 811 743 615 687 695 620 656 599 640 703 703 725 962 1438 1315 1433 959 822 667 686 756 732 714 842 760 837 837 741 728 762 441 343 442 333 273 225 142 164 317 240 285 171 171 271 234 167 53 60 67 213 475 241 135 176 280 342 416 532 565 565 537 466 444 537 539 518 313 430 483 861 985 1214 1290 221 544 544 653 717 688 500 469 524 470 343 305 380 402 391 457 301 171 171 86 63 92 147 90 32 13 -25 -6 -67 16 21 -146 -21 -83 -114 -114 -171 -206 -177 -175 -127 -48 -36 122 186 358 315 187 193 166 225 225 252 308 342 401 375 280 259 264 290 347 395 437 450 452 430 430 424 477 577 629 632 624 585 577 631 648 677 697 623 596 615 746 746 775 868 947 968 1015 1090 1196 1264 1284 1260 1312 1314 1358 1327 1349 1349 1533 1710 1540 806 1029 1668 1802 1735 1783 1547 1118 818 3014 2513 1535 1535 2106 1845 1174 2553 2346 2165 1997 1944 2019 1875 2071 1913 1903 1808 1677 1677 1625 1723 2125 2434 1883 974 308 734 953 1615
205 197 233 245 265 265 261 278 312 367 362 402 288 325 301 291 438 288 325 385 154 154 429 88 -86 -103 97 479 556 471 363 127 286 136 148 346 521 580 580 540 645 775 742 836 816 884 933 952 1054 1210 1380 1446 1408 1546 1546 1681 1833 2039 2061 2163 2273 1844 1752 1686 1643 1598 1564 1554 1618 1470 1470 1267 1192 1205 1187 1050 918 829 773 746 583 530 509 418 373 383 357 357 282 192 216 363 384 253 18 -45 99 -35 8 -13 -117 -119 37 37 -104 -137 -150 -116 122 290 197 242 320 407 461 432 464 534 762 762 1113 1170 686 562 451 340 353 325 524 732 644 574 709 911 779 700 700 760 767 826 813 877 929 955 977 1024 885 889 996 1107 1026 827 827 725 645 648 672 682 686 956 691 523 445 638 789 572 779 1282 1282 1080 960 807 811 507 557 546 539 637 887 803 735 674 624 620 620 793 795 744 675 711 719 730 738 931 963 1088 1139 1037 1246 1364 1835 1835 2398 2905 3105 2884 2736 2689 2665 2750 2711 2579 2460 2464 1409 1862 2076 2076 2247 2209 2035 1987 1910 1814 1603 1543 1797 1193 936 1262 1416 1067 1081 1081 1194 1267 1280 1257 1224 1233 1384 1608 1860 1785 1676 1759 1712 1392 1184 1175 1175 1356 1037 1522 1455 1255 1376 1378 1371 1422 1562 1702 1527 1338 1286 1256 1256 1236 1194 1293 1240 1179 1077 1055 1089 994 900 762 616 471 316 414 414 325 275 285 336 304 335 383 828 920 613 662 912 983 924 1028 1065 1065 984 1201 1164 1232 1270 1411 1440 1349 1381 1323 1149 1415 1636 1665 1645 1645 1570 1423 1220 1087 910 807 663 519 497 440 300 246 286 368 622 622 392 421 377 566 694 830 728 855 1108 914 630 448 378 309 243 243 54 127 -54 -278 123 185 -205 -192 -263 -322 -391 -119 -370 -387 -393 -311 -311 -229 142 60 -585 -319 -365 -385 -349 -328 -229 -163 -18 102 189 272 272 387 518 557 585 650 699 751 789 817 763 827 1229 1190 1153 965 965 856 1158 960 1234 1440 1258 1285 1375 1292 1333 1330 1281 1187 1127 1105 1079 1079 1067 1078 1068 1062 1086 1095 1137 1136 1197 522 675 699 733 817 847 847 902 895 895 900 919 883 961 894 898 931 946 963 895 875 905 905 890 872 1007 1077 986 944 857 1012 810 866 871 885 784 748 793 814 814 832 868 902 824 642 978 470 607 639 715 701 664 589 595 552 552 546 578 630 693 695 962 990 610 562 503 584 948 681 587 569 569 495 418 374 412 677 432 230 161 247 250 270 172 220 180 76 76 39 -19 3 23 -11 1 264 274 206 176 134 180 351 509 338 421 421 404 443 245 344 919 900 933 882 676 898 863 876 772 906 653 653 706 662 502 348 394 392 270 132 95 116 201 181 150 46 39 39 148 158 91 86 84 -1 -34 -52 -65 -94 -104 -131 -163 -165 -265 -287 -287 -184 -179 -204 -151 -123 -134 -100 -182 -96 -167 -33 95 149 145 113 113 28 76 81 80 192 200 178 166 118 274 387 443 492 611 511 511 415 478 599 637 611 542 487 483 508 475 463 482 512 579 627 754 754 723 635 669 749 834 901 980 1020 1022 1161 1318 1369 1397 1465 1919 1919 1917 1615 1334 1698 1636 1353 898 1532 2319 2320 2352 2726 2433 1921 3651 3651 2418 1868 2065 2542 2561 2749 2710 1996 1802 2407 2317 2161 2147 2162 2188 2188 2325 2326 1925 688 178 511 844 1110 1586 1779
